-1.936540339170185376e+01 -1.654810508755277709e+01 -1.373080678340370397e+01 -1.377998736107889144e+01 -1.381234834994519289e+01 -1.374527479942506503e+01 -1.360427839461125998e+01 -1.351741966838854836e+01 -1.358383607088511980e+01 -1.365009420092425430e+01 -1.365842382742466654e+01 -1.368196825001403738e+01 -1.366932736355126821e+01 -1.363514231434742818e+01 -1.360167736776427105e+01 -1.357772300265860643e+01 -1.355983718817841144e+01 -1.353992721953223111e+01 -1.350524295240698791e+01 -1.333608352265056674e+01 -1.317575643481639247e+01 -1.313185499273262735e+01 -1.313784260320803021e+01 -1.323143208033822127e+01 -1.341102261453734101e+01 -1.352383710321137755e+01 -1.351448506661659010e+01 -1.354229959350325174e+01 -1.373484407845902844e+01 -1.393079568857116257e+01 -1.386891735532457837e+01 -1.367355406694311526e+01 -1.351260996930180625e+01 -1.340677128050196565e+01 -1.334005748088712018e+01 -1.335122518169949046e+01 -1.333521058500107870e+01 -1.328537889856638010e+01 -1.324943359700861123e+01 -1.317619113478819415e+01 -1.306382274585392977e+01 -1.303782675096254806e+01 -1.313826785077379711e+01 -1.320463749086626848e+01 -1.311233768208211181e+01 -1.299150055836364714e+01 -1.284343456926833760e+01 -1.275231448121791722e+01 -1.276392035271840619e+01 -1.276128154662075076e+01 -1.269935526453572017e+01 -1.261868109896066059e+01 -1.253731141132971416e+01 -1.249126292498400659e+01 -1.246489536938729970e+01 -1.246623253746288640e+01 -1.245350423717149724e+01 -1.237794909415029210e+01 -1.230173130027571204e+01 -1.236264627489164347e+01 -1.257436087517251799e+01 -1.268377365417341274e+01 -1.239356254557615777e+01 -1.213775520984838252e+01 -1.217125879708949832e+01 -1.218307729223694658e+01 -1.211886820976579848e+01 -1.203275545978799421e+01 -1.194778926860729662e+01 -1.188737160952418037e+01 -1.186414129102222503e+01 -1.188608857650513606e+01 -1.190249494781189554e+01 -1.184435695620272000e+01 -1.174610911219841469e+01 -1.164647120607960673e+01 -1.157763898758790511e+01 -1.152049234490104546e+01 -1.144558392611306807e+01 -1.138045403353798690e+01 -1.146928388658851361e+01 -1.158204026255010177e+01 -1.169292802825358280e+01 -1.178928492678486073e+01 -1.178961522588802779e+01 -1.173217775782364747e+01 -1.167568609157317994e+01 -1.162832675937022664e+01 -1.159397361507068780e+01 -1.159241242495957458e+01 -1.158220375356381737e+01 -1.148356694686904689e+01 -1.134783548929444308e+01 -1.115272400408792564e+01 -1.092715458604298284e+01 -1.069328858115581049e+01 -1.044427879391634306e+01 -1.020096260953892831e+01 -9.917753231743086317e+00 -9.635588487315853712e+00 -9.331050586735120334e+00 -9.019594979195495910e+00 -8.878539876881188064e+00 -8.876134010426042664e+00 -8.736258606030704144e+00 -8.320097505702960916e+00 -7.952912673404321175e+00 -7.284826865367800330e+00 -6.462548875677017968e+00 -6.159467417560687608e+00 -6.191883381657165231e+00 -6.464586498183089169e+00 -6.874998978191174892e+00 -7.094840141822459145e+00 -7.112354903475125667e+00 -7.129375815350272205e+00 -7.464007300908504838e+00
-1.938032622489857104e+01 -1.657048933734785479e+01 -1.376065244979714031e+01 -1.381616112630334925e+01 -1.387038287410075732e+01 -1.374994317166718716e+01 -1.360785219119442147e+01 -1.360013181466256782e+01 -1.367679302046566647e+01 -1.370244628944753806e+01 -1.366398348364285908e+01 -1.364446375553442614e+01 -1.365882328514003063e+01 -1.365911859667961714e+01 -1.362169829790995834e+01 -1.357970534176421040e+01 -1.356362332094114009e+01 -1.357581658857563234e+01 -1.352223824488036641e+01 -1.331872823242979642e+01 -1.314071969264903927e+01 -1.314163823158561684e+01 -1.314098232724799686e+01 -1.326319632800200310e+01 -1.344113496694311038e+01 -1.352598512610880555e+01 -1.349516743730347734e+01 -1.350798138027856865e+01 -1.370095168045551581e+01 -1.388812749366418409e+01 -1.385088775420114615e+01 -1.377398339234608038e+01 -1.358904432325230438e+01 -1.340116417018979433e+01 -1.333737098174688640e+01 -1.337404849518921779e+01 -1.338187142462574641e+01 -1.330662966411122028e+01 -1.323282672105082725e+01 -1.320899610777524735e+01 -1.316344086274771996e+01 -1.315579387369472641e+01 -1.318022848043835182e+01 -1.316660893306182345e+01 -1.311052605291721207e+01 -1.300437857493932903e+01 -1.273321269551333046e+01 -1.243751761242019427e+01 -1.264942204456794883e+01 -1.280950973237185408e+01 -1.276237570865103876e+01 -1.266642407502807544e+01 -1.258308017299735226e+01 -1.250942275987031849e+01 -1.245971339711601011e+01 -1.247897135383549383e+01 -1.250197359002335951e+01 -1.230095853150926288e+01 -1.212752380881740777e+01 -1.230854293712956604e+01 -1.258311305541975678e+01 -1.260561362340099123e+01 -1.236090565030793442e+01 -1.214940499183217959e+01 -1.218135532040257374e+01 -1.227999352195129390e+01 -1.227685116253326036e+01 -1.222554960998807516e+01 -1.206910363693869037e+01 -1.191300600924101794e+01 -1.187168182251710391e+01 -1.191936222307845838e+01 -1.193444629650940847e+01 -1.188463604318246070e+01 -1.184073010373075263e+01 -1.172113650559257536e+01 -1.159312814568450101e+01 -1.152728878746581742e+01 -1.148054891419264223e+01 -1.148216262115932018e+01 -1.155213213922064774e+01 -1.162766186332436291e+01 -1.171481553982486012e+01 -1.180903918129788543e+01 -1.175753208863326194e+01 -1.170156699938971911e+01 -1.163105609334315815e+01 -1.155654313958956614e+01 -1.155153167035581774e+01 -1.161177871266834671e+01 -1.161992394220752622e+01 -1.148293569019066140e+01 -1.135162461640885923e+01 -1.115110760924974720e+01 -1.093154240854847359e+01 -1.065741288916477814e+01 -1.036752205194233944e+01 -1.009004811830340920e+01 -9.803626016801475274e+00 -9.505400406655633461e+00 -9.156189830916677153e+00 -8.828446605137212799e+00 -8.843998195840963916e+00 -8.878850346859056941e+00 -8.541608635101505698e+00 -7.944971038818007258e+00 -7.512154413585811596e+00 -7.318279839159711919e+00 -6.980420388763691975e+00 -6.659040546115739367e+00 -6.378990554088761478e+00 -6.654670561031824860e+00 -7.054224294114453286e+00 -7.342438291918878868e+00 -7.475074476246234667e+00 -7.577366116496577320e+00 -7.785706184032298971e+00
-1.938193903464751955e+01 -1.657290855197127755e+01 -1.376387806929503732e+01 -1.384455306773489625e+01 -1.387749961762620288e+01 -1.371965425535272054e+01 -1.355614547205013487e+01 -1.361820388199357268e+01 -1.369232519792335623e+01 -1.365502979157315622e+01 -1.358203897870848209e+01 -1.358937886751164648e+01 -1.366693655373727267e+01 -1.370341122650285470e+01 -1.365824381181368707e+01 -1.361819960945452124e+01 -1.357614006368394755e+01 -1.354719773311976638e+01 -1.345061281421734378e+01 -1.330194887819491889e+01 -1.323217218005403595e+01 -1.326686296340530191e+01 -1.326916342315290187e+01 -1.327143588249051476e+01 -1.330118586369508016e+01 -1.340115551808278127e+01 -1.347961359491157118e+01 -1.355243520411781333e+01 -1.365780060320963152e+01 -1.376968334453798803e+01 -1.384039601607594250e+01 -1.384722411109005691e+01 -1.362809989184665582e+01 -1.340529680289385439e+01 -1.336566369199422155e+01 -1.335985540541767591e+01 -1.326094109212051997e+01 -1.312202884371226119e+01 -1.309602447764239841e+01 -1.319737579553963158e+01 -1.324720315488203681e+01 -1.319178756485398019e+01 -1.316475786600094189e+01 -1.312021931345251424e+01 -1.305955841990152244e+01 -1.295128345104794931e+01 -1.279023175184783412e+01 -1.270035661630460133e+01 -1.279836961435580633e+01 -1.289281113471056806e+01 -1.278597701077896609e+01 -1.268432040132417171e+01 -1.261376979314988134e+01 -1.254553662426963001e+01 -1.251886197475224272e+01 -1.252322082204021747e+01 -1.246342945141175385e+01 -1.227443752041599012e+01 -1.211501826771959678e+01 -1.230024402594610500e+01 -1.253047841787437555e+01 -1.254357433607273720e+01 -1.245146356795762088e+01 -1.226691095021786992e+01 -1.209277785748218292e+01 -1.204427569449828006e+01 -1.211737717034709405e+01 -1.215408862702122761e+01 -1.203852300460418867e+01 -1.190406371638478156e+01 -1.192844409374571413e+01 -1.199507835236669706e+01 -1.198927895646300890e+01 -1.193284162858992659e+01 -1.185877888109640921e+01 -1.175483293815065977e+01 -1.164968824432337868e+01 -1.161363660734432912e+01 -1.157327025946563381e+01 -1.159359521916777425e+01 -1.163805323876413844e+01 -1.168742451675447569e+01 -1.175034435254772980e+01 -1.178635710461188602e+01 -1.171583107041466576e+01 -1.164789390962491034e+01 -1.156034750503814834e+01 -1.147578340353877024e+01 -1.154784263783826859e+01 -1.165306209319996888e+01 -1.162976704305400055e+01 -1.149229845657615101e+01 -1.133750052457970448e+01 -1.117550592506140461e+01 -1.099669473060183122e+01 -1.068883558421566704e+01 -1.038472339625507956e+01 -1.007647167228163809e+01 -9.767479171113892633e+00 -9.380149747592522402e+00 -8.939614256548832572e+00 -8.658861802356026871e+00 -8.737801917116824413e+00 -8.802203535453797301e+00 -8.552622093912441770e+00 -8.217883022160645368e+00 -7.796327230365966976e+00 -7.429299099317777433e+00 -7.121863550846537549e+00 -6.824983148000235644e+00 -6.661965460021284535e+00 -6.899072053453152442e+00 -7.144505134535550361e+00 -7.613756169537348129e+00 -8.002354439581228718e+00 -8.096589400723766872e+00 -8.143568514292361726e+00
-1.934472731580351024e+01 -1.651709097370526891e+01 -1.368945463160702403e+01 -1.377432010448090338e+01 -1.376358532340180219e+01 -1.366261572894122445e+01 -1.358948680077550897e+01 -1.362668225088984286e+01 -1.367104085317193096e+01 -1.356473832962888615e+01 -1.345468122449628900e+01 -1.354879589673494422e+01 -1.369399128746289307e+01 -1.369813630363841739e+01 -1.360543155445548891e+01 -1.355028068075940340e+01 -1.354875855175592214e+01 -1.353196775634144977e+01 -1.343709262718772735e+01 -1.333189252860259977e+01 -1.341572965735442757e+01 -1.356049417220152264e+01 -1.355989846292055212e+01 -1.347766501929067573e+01 -1.344356630942919217e+01 -1.348528754001253560e+01 -1.353818409277211288e+01 -1.352305016916658964e+01 -1.353989004823985809e+01 -1.368950904545973124e+01 -1.384472911868366296e+01 -1.380570726580289076e+01 -1.359789724760623564e+01 -1.342649445235811534e+01 -1.338318182011501634e+01 -1.334781720274989780e+01 -1.322705947548072913e+01 -1.307812301037956360e+01 -1.310250177616035394e+01 -1.322591876964764168e+01 -1.323670106702530092e+01 -1.310031418901341205e+01 -1.300660977177029665e+01 -1.298879567696093318e+01 -1.296098969301669968e+01 -1.293759982701633504e+01 -1.288407321463580502e+01 -1.286545285417067497e+01 -1.289482090895640454e+01 -1.287893682436416398e+01 -1.277210336872295038e+01 -1.266753723991632619e+01 -1.260917553311142569e+01 -1.254839165253015487e+01 -1.253258734603787161e+01 -1.252494952741832890e+01 -1.240788526541269299e+01 -1.223870326953578491e+01 -1.215682024127653449e+01 -1.221418403564735300e+01 -1.232630351598695206e+01 -1.249769411375791961e+01 -1.260441654870883532e+01 -1.228971486163701599e+01 -1.198463728044488974e+01 -1.199593573896653709e+01 -1.212223249581978735e+01 -1.213994508008429207e+01 -1.204001024334291969e+01 -1.196262750398835450e+01 -1.199903806817925300e+01 -1.204602406629142664e+01 -1.196233164011246686e+01 -1.187563039629722716e+01 -1.181332127916473773e+01 -1.175142319640708166e+01 -1.170560417013519938e+01 -1.169255002164647372e+01 -1.167997044981356858e+01 -1.169528724321208379e+01 -1.171348461718464762e+01 -1.170066441923336242e+01 -1.170282384102724293e+01 -1.172916354045526433e+01 -1.173752519245453030e+01 -1.168630348512290063e+01 -1.157564911355025750e+01 -1.148721201003007053e+01 -1.158047110474061903e+01 -1.170026911923397606e+01 -1.163237724258128658e+01 -1.152507905964480628e+01 -1.128196853602984895e+01 -1.099674644612167107e+01 -1.078101436568556615e+01 -1.059648965905292961e+01 -1.036955522446512568e+01 -1.008362522886286783e+01 -9.779755415874287650e+00 -9.248906273403896705e+00 -8.716175506269472351e+00 -8.657039038646788143e+00 -8.859362236883136177e+00 -8.889999092760341171e+00 -8.665570205801039094e+00 -8.404037386692426281e+00 -7.806783389090619529e+00 -7.271592386076587644e+00 -6.989109579809759332e+00 -6.654459956398698139e+00 -6.642320809518388991e+00 -6.853819658519919145e+00 -7.110065582776115889e+00 -7.480303607903581842e+00 -7.892086401720599831e+00 -8.111295886928097332e+00 -8.266580333083943799e+00
-1.938398283052148940e+01 -1.657597424578223766e+01 -1.376796566104298236e+01 -1.378081284455408451e+01 -1.374105465646938384e+01 -1.367911665064217885e+01 -1.364292627941315317e+01 -1.362621582888376182e+01 -1.357099417207632186e+01 -1.347623869811809350e+01 -1.340696966822961400e+01 -1.352721425112039455e+01 -1.365654235383697923e+01 -1.362176665182977864e+01 -1.354845964455294904e+01 -1.352621755782910462e+01 -1.354342818955454320e+01 -1.353823449543828339e+01 -1.347576502169562573e+01 -1.342581590089595700e+01 -1.355083338625977873e+01 -1.368111934430882037e+01 -1.362235365302624501e+01 -1.353724579914188197e+01 -1.350933628737404391e+01 -1.352739290637403080e+01 -1.351621231710633708e+01 -1.342162653257312677e+01 -1.337243816414994413e+01 -1.367400802009547434e+01 -1.393966783524021480e+01 -1.382965794315923347e+01 -1.364382001523838994e+01 -1.349774413682403562e+01 -1.340033194161653718e+01 -1.333532315677104130e+01 -1.329142276313065274e+01 -1.323451890560181354e+01 -1.321868758074538519e+01 -1.323548285566443106e+01 -1.310885608274417891e+01 -1.295366854890629327e+01 -1.288588155813201475e+01 -1.287874412335590968e+01 -1.289459412259741988e+01 -1.295495082210523208e+01 -1.299553342221392427e+01 -1.292207843575638648e+01 -1.285730268287382572e+01 -1.280863237281320011e+01 -1.274635664291240289e+01 -1.268865763433772997e+01 -1.263919596213913543e+01 -1.258344807098897711e+01 -1.253299057552196238e+01 -1.249238295954741673e+01 -1.233980373188502888e+01 -1.218496635769943026e+01 -1.208349119352732792e+01 -1.203004279489220352e+01 -1.216567073438445235e+01 -1.242647952359940433e+01 -1.252276940286248674e+01 -1.222242142888345384e+01 -1.190169580858279197e+01 -1.205816350212802845e+01 -1.224960263439158936e+01 -1.222755214805405188e+01 -1.212375266498118620e+01 -1.206246090212670730e+01 -1.205171968251794823e+01 -1.203553072534137947e+01 -1.195830780150271444e+01 -1.186856681608900921e+01 -1.183132149786925424e+01 -1.178032979555245774e+01 -1.174813644775056432e+01 -1.174267560344298289e+01 -1.173927012146558901e+01 -1.173922237477549757e+01 -1.173838603935650227e+01 -1.171943163683002886e+01 -1.169726770894942369e+01 -1.175585939747628927e+01 -1.181657245260430500e+01 -1.177399465384870503e+01 -1.168463143335719501e+01 -1.162773631630317972e+01 -1.163937613723796716e+01 -1.165482149477691998e+01 -1.159636689867388348e+01 -1.152857141432542676e+01 -1.116072432495073663e+01 -1.078757925200480372e+01 -1.060608419203238029e+01 -1.050285084816298564e+01 -1.035166055264380880e+01 -1.012090367179789752e+01 -9.840422482482239275e+00 -9.405334383057310177e+00 -8.928575816179883162e+00 -8.919457978903066575e+00 -9.006034970186266975e+00 -8.937172353542681691e+00 -8.754943564759894770e+00 -8.284393369947517627e+00 -7.483009030116718918e+00 -6.923015332094500707e+00 -7.039182575737665815e+00 -7.041927359037430278e+00 -6.795519202175489326e+00 -6.667593330815740238e+00 -6.847131877648415355e+00 -7.133769292910702831e+00 -7.479121277245993404e+00 -7.887151888259744226e+00 -8.194669196575240733e+00
-1.940221981363746551e+01 -1.660332972045620181e+01 -1.380443962727493457e+01 -1.378658312242899697e+01 -1.378226473071781477e+01 -1.377611915669188924e+01 -1.376242691936532481e+01 -1.374804442138256988e+01 -1.361743559566857442e+01 -1.345934375840418085e+01 -1.345081074240174246e+01 -1.357641690998493011e+01 -1.364652088464245239e+01 -1.358866248768458540e+01 -1.354022822738733645e+01 -1.354219847228873341e+01 -1.355114484583225654e+01 -1.358196558711415314e+01 -1.359809562803287264e+01 -1.362407119543645884e+01 -1.369717989099991584e+01 -1.375070154766402197e+01 -1.366441821738491846e+01 -1.356423707924838951e+01 -1.350341014015089058e+01 -1.347401454230027618e+01 -1.344016738305107950e+01 -1.338701958011501958e+01 -1.347875617978571228e+01 -1.376685101334306793e+01 -1.397937577870409065e+01 -1.384961200943823911e+01 -1.370894806835632451e+01 -1.355226261296619761e+01 -1.339817406366158181e+01 -1.336640092906116450e+01 -1.337336728430825161e+01 -1.333684078356111158e+01 -1.327109206027771648e+01 -1.320207736483028960e+01 -1.303948614713930887e+01 -1.286688796723984929e+01 -1.281057775567281709e+01 -1.278245949117505020e+01 -1.284768071338829465e+01 -1.294714770836504059e+01 -1.297426535154501259e+01 -1.290934255739887959e+01 -1.284796697709384361e+01 -1.281560988930605660e+01 -1.277575888466743592e+01 -1.271991621221521029e+01 -1.267482023534943103e+01 -1.260192350159884356e+01 -1.250894904862347090e+01 -1.239837500781884039e+01 -1.224765830204401951e+01 -1.210168144712649863e+01 -1.199145883528771073e+01 -1.188456685316124961e+01 -1.209395173601425633e+01 -1.236341064580881266e+01 -1.237428161409044591e+01 -1.218738040770869446e+01 -1.205578339874053917e+01 -1.210469797956209348e+01 -1.217458257989529713e+01 -1.214646140450657441e+01 -1.210441227511076079e+01 -1.201947096195149278e+01 -1.196066917540544594e+01 -1.197103243425483399e+01 -1.197910898672590996e+01 -1.197213603003124938e+01 -1.197720885482588216e+01 -1.196475276322031256e+01 -1.191624236741610687e+01 -1.187564975371385145e+01 -1.183620254484465484e+01 -1.180395145919990441e+01 -1.178092651451598094e+01 -1.176131113612297519e+01 -1.176481534193570866e+01 -1.182071561570171525e+01 -1.186992375512830300e+01 -1.182313269321022631e+01 -1.176589564413010969e+01 -1.163924068684284485e+01 -1.154018427046998951e+01 -1.152899856860264194e+01 -1.154018389552184232e+01 -1.141471879061961658e+01 -1.103496633574361852e+01 -1.066684275821126704e+01 -1.054926453228962657e+01 -1.043520612915296653e+01 -1.031369352550956187e+01 -1.016708101866502645e+01 -9.837348486813223047e+00 -9.411422231064584309e+00 -9.110425563447034136e+00 -9.027584106882432735e+00 -8.978153551287295642e+00 -8.934578659836637016e+00 -8.843839631655262323e+00 -8.287773393359334051e+00 -7.576386386460868039e+00 -7.175091572232970449e+00 -7.146781024761653001e+00 -7.063509150418572524e+00 -6.620238319405710392e+00 -6.200850530819923101e+00 -6.446768002051083357e+00 -6.717222200733806936e+00 -7.144881290414429209e+00 -7.603661959631654810e+00 -7.935643434741754376e+00
-1.940592667091848966e+01 -1.660889000637773805e+01 -1.381185334183698288e+01 -1.379263901160155825e+01 -1.377030203273190878e+01 -1.375638213670652554e+01 -1.375278320199003446e+01 -1.374399882764483571e+01 -1.361132883126561666e+01 -1.345379822398986391e+01 -1.354366874481679162e+01 -1.372902218066092139e+01 -1.375232132369070293e+01 -1.366547941133474353e+01 -1.358898899298602458e+01 -1.353086546902735776e+01 -1.350015898660317326e+01 -1.358597319841940454e+01 -1.367109699412076296e+01 -1.374373839600188063e+01 -1.380650797233881732e+01 -1.381958550781052253e+01 -1.377604427079062788e+01 -1.371879371214634880e+01 -1.365765453258875084e+01 -1.359507985452911250e+01 -1.349432563361635218e+01 -1.340871049691182293e+01 -1.357240722373861352e+01 -1.383065163304343770e+01 -1.393402069447155256e+01 -1.385595669719417522e+01 -1.373244612310169011e+01 -1.356541902911391873e+01 -1.340684111641680687e+01 -1.343550601612038875e+01 -1.346178651136047577e+01 -1.338734955947870908e+01 -1.328871639207063282e+01 -1.316553876733672368e+01 -1.303126163491381995e+01 -1.290651506161582951e+01 -1.280497530455716415e+01 -1.272370689195814819e+01 -1.288134411016312875e+01 -1.302217692930341997e+01 -1.297261782770216065e+01 -1.288013760049416945e+01 -1.284520895361654702e+01 -1.284829799989805466e+01 -1.282238604912002877e+01 -1.272749704960205364e+01 -1.264329077726761241e+01 -1.254460761170078875e+01 -1.244754194526693247e+01 -1.233285949954463590e+01 -1.220107477314904187e+01 -1.205143068252926142e+01 -1.190582774329610771e+01 -1.185330735106401256e+01 -1.204380233292245350e+01 -1.225592268983991673e+01 -1.225406236950419725e+01 -1.220248719198050935e+01 -1.214555138123812483e+01 -1.211612311013081111e+01 -1.207880555538084089e+01 -1.203342870879163762e+01 -1.199134668625525535e+01 -1.184615770960168923e+01 -1.167679553535245951e+01 -1.182988342048315289e+01 -1.195892212431698631e+01 -1.198505341334646346e+01 -1.198629711203693482e+01 -1.198805937881294170e+01 -1.197561314306009805e+01 -1.195244117585211008e+01 -1.191152377586923627e+01 -1.186968293350376946e+01 -1.184710083592190166e+01 -1.182301551156568564e+01 -1.181277715218361379e+01 -1.182183380751888535e+01 -1.183331057934029040e+01 -1.182625334407821605e+01 -1.178909680732426324e+01 -1.161446579475611429e+01 -1.139904990117832995e+01 -1.140434541451434214e+01 -1.147621683639155243e+01 -1.126533040660520868e+01 -1.090548223906176695e+01 -1.063873749694652204e+01 -1.051462474906691114e+01 -1.039480489848158840e+01 -1.030074083792761463e+01 -1.021126392976439234e+01 -9.730233586225637055e+00 -9.125669700524934314e+00 -8.798690487869567534e+00 -8.620378200086307174e+00 -8.609689837668431878e+00 -8.780753090996451959e+00 -8.828661909487850679e+00 -8.395196438256229854e+00 -7.871969508751073263e+00 -7.385462542433880451e+00 -7.016551062558302299e+00 -6.604555253435259843e+00 -6.138935758272657139e+00 -5.913347927564662321e+00 -6.098039287718489021e+00 -6.327701771504907313e+00 -6.767690760266797056e+00 -7.228420386219320370e+00 -7.669363389575292622e+00
-1.943142809055627396e+01 -1.664714213583441094e+01 -1.386285618111254792e+01 -1.381984182352297985e+01 -1.377630649715524491e+01 -1.374324698213958484e+01 -1.371675826138862320e+01 -1.367843584799166479e+01 -1.361727963860597335e+01 -1.354779801485008406e+01 -1.354928862930590405e+01 -1.359589390874655734e+01 -1.359489787359839497e+01 -1.357483170911793735e+01 -1.353814276504574821e+01 -1.348311308072502968e+01 -1.347007901482834136e+01 -1.354265806549184603e+01 -1.362652543570124308e+01 -1.372100188979711888e+01 -1.380769838513308656e+01 -1.383936023855813957e+01 -1.385197353225582262e+01 -1.380047466366359465e+01 -1.373086801154536474e+01 -1.364925453951169665e+01 -1.353463740349463507e+01 -1.345574634621161536e+01 -1.357660526801635470e+01 -1.372729656460177239e+01 -1.377302202741157799e+01 -1.377868000820580718e+01 -1.369238754851021511e+01 -1.355383773893985122e+01 -1.346737917756758129e+01 -1.349020348821379045e+01 -1.350715186303587600e+01 -1.340261528932115809e+01 -1.329065303964391731e+01 -1.308854529793138965e+01 -1.289148244877478433e+01 -1.280853789310437740e+01 -1.277088205299873991e+01 -1.278166955102622815e+01 -1.292798830315785708e+01 -1.306557124343057552e+01 -1.294403235907942218e+01 -1.279964565575454749e+01 -1.280934580246928611e+01 -1.283794934719883329e+01 -1.278641913034910971e+01 -1.268613228090203648e+01 -1.259207789756954909e+01 -1.250116500875191150e+01 -1.240545547773009538e+01 -1.231402618127110316e+01 -1.221056120804754919e+01 -1.200634823678790042e+01 -1.180475721291748670e+01 -1.190418763949278613e+01 -1.219260954967936428e+01 -1.231968368815980419e+01 -1.219397869106673227e+01 -1.212643072335594496e+01 -1.214774527263321602e+01 -1.211978195641307110e+01 -1.196369336811351580e+01 -1.181866468713690388e+01 -1.176481548285527801e+01 -1.172885538244302239e+01 -1.172160635418612884e+01 -1.185530701885040727e+01 -1.198793932459117606e+01 -1.197759929989629768e+01 -1.196339883558248829e+01 -1.195206322359603135e+01 -1.196175928743512173e+01 -1.194801347092039912e+01 -1.190993607713404856e+01 -1.188931962521476393e+01 -1.190739071348726341e+01 -1.191141112902341348e+01 -1.185044448644756621e+01 -1.180502433422743636e+01 -1.181560880233886657e+01 -1.182514476547997795e+01 -1.180554848485037489e+01 -1.175634956960388422e+01 -1.168469546576050178e+01 -1.165980455677378558e+01 -1.164794361392961264e+01 -1.124117734147876213e+01 -1.084531132747037319e+01 -1.063539544397482217e+01 -1.049319188088469978e+01 -1.036752285947287255e+01 -1.026146302812623823e+01 -1.013068072294911381e+01 -9.865954478745999623e+00 -9.517841820529117314e+00 -9.092708508914947529e+00 -8.697706492253443500e+00 -8.581895373891063272e+00 -8.658688654251626815e+00 -8.717168799721390471e+00 -8.632818648935364436e+00 -8.305202032202233298e+00 -7.477769064767063156e+00 -6.762844124481905972e+00 -6.591260000682533260e+00 -6.329275899930308924e+00 -6.082695507976608518e+00 -5.955681411969894867e+00 -6.075506953131700527e+00 -6.400729929402951157e+00 -6.781489913075652964e+00 -7.349369992926540363e+00
-1.942330870378515328e+01 -1.663496305567772993e+01 -1.384661740757030479e+01 -1.381604895346851158e+01 -1.378366986374656733e+01 -1.375364054823843141e+01 -1.371654309889867207e+01 -1.367419673539633074e+01 -1.362612144639519940e+01 -1.358684875515708690e+01 -1.355594716400790389e+01 -1.352903184889918542e+01 -1.351608202679377335e+01 -1.349545214518711944e+01 -1.346979808398383938e+01 -1.346251233217123833e+01 -1.349055203596024910e+01 -1.353857062778055820e+01 -1.361410002533191310e+01 -1.371067844512510092e+01 -1.379829044181125219e+01 -1.385735731858138742e+01 -1.391279071811945478e+01 -1.380374910259853394e+01 -1.370562899313589789e+01 -1.358258311348396852e+01 -1.345423084430715832e+01 -1.344938269750910287e+01 -1.357141431036958146e+01 -1.368395575406050746e+01 -1.375666050499911996e+01 -1.380941188369801509e+01 -1.367249459944473422e+01 -1.354552418861625540e+01 -1.349855883321329486e+01 -1.348297139400742140e+01 -1.340461730943650132e+01 -1.325421943115285828e+01 -1.313509364756806264e+01 -1.304978507007695043e+01 -1.290970301876319581e+01 -1.283537003191496950e+01 -1.279302134065174279e+01 -1.283604776784279089e+01 -1.291958364932122549e+01 -1.296162743038157039e+01 -1.291402541655080149e+01 -1.285636905901436577e+01 -1.285280006277121423e+01 -1.285798141943148210e+01 -1.274813135624528648e+01 -1.263496208365558005e+01 -1.255631363635710862e+01 -1.248297684913747752e+01 -1.241734748648104514e+01 -1.236293338148145615e+01 -1.227284303219585659e+01 -1.206215395017913750e+01 -1.184522002407998187e+01 -1.209865536216364390e+01 -1.240248329500633595e+01 -1.234922227391491845e+01 -1.209434547794037051e+01 -1.198496546526796358e+01 -1.214730368171270669e+01 -1.221740566978412446e+01 -1.198653060562605255e+01 -1.177191497092326244e+01 -1.170060820196392903e+01 -1.165791913374581235e+01 -1.175005867526250469e+01 -1.189741389518362169e+01 -1.197500910053008205e+01 -1.197282032898271531e+01 -1.195835842895660051e+01 -1.187859138892133259e+01 -1.182077602965215846e+01 -1.184057421776513586e+01 -1.185550231765315488e+01 -1.188462191096143528e+01 -1.193167228876542296e+01 -1.193788033708264429e+01 -1.186178527218186218e+01 -1.179613972456241200e+01 -1.187332279330722962e+01 -1.193390720179211328e+01 -1.187651202672374851e+01 -1.181332872438945181e+01 -1.178086911181078378e+01 -1.176572875669716112e+01 -1.161966785258700874e+01 -1.122117527599651154e+01 -1.083197294351456996e+01 -1.064635702977242104e+01 -1.047132901607459132e+01 -1.029754934555370127e+01 -1.013922522124011749e+01 -9.980711158693061691e+00 -9.819591008861575432e+00 -9.615443937122179818e+00 -9.284485598256347672e+00 -8.911969885370318423e+00 -8.562704247490929177e+00 -8.283935616713304029e+00 -8.309364850733111041e+00 -8.347159743196666426e+00 -7.929106731506299965e+00 -7.177935998980911059e+00 -6.664625861659160044e+00 -6.687197355027930001e+00 -6.675086602435865046e+00 -6.285371220415235882e+00 -5.875974950958888776e+00 -6.026217739320461675e+00 -6.313261681069189279e+00 -6.814416757399897939e+00 -7.452515275370039660e+00
-1.936716346850903747e+01 -1.655074520276355798e+01 -1.373432693701807494e+01 -1.371074234055596719e+01 -1.370727766419699911e+01 -1.372922953306000515e+01 -1.372858712692019800e+01 -1.367542940768814574e+01 -1.362704049738308498e+01 -1.361784151825410483e+01 -1.360376167173796702e+01 -1.360293944232100927e+01 -1.361334675030334296e+01 -1.357902828230176695e+01 -1.348995976002975183e+01 -1.343276817921650412e+01 -1.348098079349770195e+01 -1.352686193232975853e+01 -1.361799181264422387e+01 -1.371391235436926692e+01 -1.378510801929611063e+01 -1.385474138558641144e+01 -1.384638892924250086e+01 -1.369921795155801547e+01 -1.356936640903209401e+01 -1.349309563629582698e+01 -1.340077741004331102e+01 -1.345783743609145944e+01 -1.356038819084885461e+01 -1.369095768421329673e+01 -1.383257027698699382e+01 -1.386265384879254547e+01 -1.367565078441726989e+01 -1.351069002400859098e+01 -1.346019741929670488e+01 -1.341962099183987078e+01 -1.331123454718117927e+01 -1.316659203128985567e+01 -1.307826247407904496e+01 -1.308308296821417827e+01 -1.308913975246440131e+01 -1.295789590637282274e+01 -1.283539768987358975e+01 -1.286930383618542706e+01 -1.291485956332332030e+01 -1.291241532590681729e+01 -1.289353431193253385e+01 -1.287160165152902458e+01 -1.285602944893436295e+01 -1.282044858694155032e+01 -1.270363657120194922e+01 -1.257964918105045626e+01 -1.255101305441927195e+01 -1.251140866725578960e+01 -1.246756908136743291e+01 -1.242290355254650613e+01 -1.228801264489019651e+01 -1.208032837611851562e+01 -1.199283778393858668e+01 -1.226038623252703808e+01 -1.259744799765118906e+01 -1.243391638288117562e+01 -1.224797127952738229e+01 -1.217977509769686151e+01 -1.219472352851877872e+01 -1.213540500601953731e+01 -1.195113866655947810e+01 -1.177112534194852778e+01 -1.166694945339338219e+01 -1.156799655841925478e+01 -1.176441917510749846e+01 -1.196047570579309394e+01 -1.197083676517040018e+01 -1.192993334747964695e+01 -1.187027313531727657e+01 -1.177976653798896756e+01 -1.171712432437586493e+01 -1.175412530115851162e+01 -1.179680336954927711e+01 -1.183786028996926021e+01 -1.187103653101626222e+01 -1.185789543548526126e+01 -1.181606373990677028e+01 -1.182146162980288651e+01 -1.189496769973927215e+01 -1.194864460730538447e+01 -1.190038079649449010e+01 -1.183679607168475378e+01 -1.179276832097388272e+01 -1.176056190502292864e+01 -1.151089889822734591e+01 -1.115417039775072539e+01 -1.085264199546041475e+01 -1.063898910712107693e+01 -1.043187161631803406e+01 -1.022168210005751732e+01 -1.001765417946201175e+01 -9.836246036994383601e+00 -9.637465626369916549e+00 -9.431851002234589387e+00 -9.236381739482878217e+00 -8.908467331459084093e+00 -8.470644918743673202e+00 -8.131993951757781502e+00 -8.147169302315047545e+00 -8.175303772018915893e+00 -7.630988729284379879e+00 -6.958321527629735215e+00 -6.693154235524130691e+00 -6.702881805527148629e+00 -6.600337151275015302e+00 -6.271149467926738552e+00 -5.989226172796390024e+00 -6.089443969909144272e+00 -6.236048071075624755e+00 -6.784711875168031980e+00 -7.440801965771106197e+00
-1.935586587930421487e+01 -1.653379881895632053e+01 -1.371173175860842974e+01 -1.367513980756354997e+01 -1.369465813280478983e+01 -1.373568512577302414e+01 -1.372842147442628224e+01 -1.366632665760716314e+01 -1.362567746416763725e+01 -1.365725467431900242e+01 -1.367762895176054982e+01 -1.366503944562182582e+01 -1.365919610720209754e+01 -1.357849492863275742e+01 -1.346648088770800378e+01 -1.343318750702994535e+01 -1.348687308849143740e+01 -1.354208504865856355e+01 -1.364609397431474846e+01 -1.375365427877361846e+01 -1.375558962576197430e+01 -1.376912875710003448e+01 -1.369987394147301352e+01 -1.357721691185910373e+01 -1.348804407022615415e+01 -1.344726945209180791e+01 -1.341234310124091778e+01 -1.345420428415716607e+01 -1.350960904181870603e+01 -1.365522351780729693e+01 -1.380498421091096972e+01 -1.375736096046426660e+01 -1.360502319923341830e+01 -1.349327504600167060e+01 -1.344147042024689576e+01 -1.337466969221570423e+01 -1.328257493719279658e+01 -1.319294029851343630e+01 -1.301919166179296461e+01 -1.288058464972145778e+01 -1.289415910157777390e+01 -1.293209033877910130e+01 -1.291931064049720845e+01 -1.290080869490942028e+01 -1.289868783447401235e+01 -1.289727912112266495e+01 -1.287952010673379100e+01 -1.281228148265590683e+01 -1.276679437051004840e+01 -1.271665607340363735e+01 -1.264731185729385743e+01 -1.258133603963096014e+01 -1.254544891547551089e+01 -1.251746337550614641e+01 -1.250387013469595487e+01 -1.247952814583044834e+01 -1.225931252010632910e+01 -1.201304468480325838e+01 -1.188992887834918122e+01 -1.190465763083165918e+01 -1.204391934741532566e+01 -1.222540700748962905e+01 -1.230947324374971785e+01 -1.226949546894090659e+01 -1.221527935606730608e+01 -1.208131941413138577e+01 -1.193626525131944049e+01 -1.180384737301398879e+01 -1.168360839875336588e+01 -1.165737496985954635e+01 -1.181442631177103841e+01 -1.196530202472661841e+01 -1.191462458166106764e+01 -1.186267554284184733e+01 -1.177753938555578550e+01 -1.168670422816764898e+01 -1.165761923975508196e+01 -1.167634017012805003e+01 -1.172087068496964513e+01 -1.180002919185211852e+01 -1.185974317186026106e+01 -1.181611631665940898e+01 -1.177630450859972555e+01 -1.181580157060994907e+01 -1.187845537205321733e+01 -1.191694317634819278e+01 -1.192294687034044109e+01 -1.188790535926137970e+01 -1.181170754803064504e+01 -1.173383829351325680e+01 -1.141000396423094543e+01 -1.108044706423624604e+01 -1.083034006069801336e+01 -1.060402815135260823e+01 -1.037685355114996533e+01 -1.014934788013239952e+01 -9.957325915010359907e+00 -9.837026469895473468e+00 -9.693269911260943061e+00 -9.413725276177205004e+00 -9.157797723341698060e+00 -8.806132586536676854e+00 -8.393821224220380017e+00 -8.131667320791018838e+00 -8.057909345934938017e+00 -7.941560863050041164e+00 -7.597626484089063936e+00 -7.176305399362599147e+00 -7.009867616940956836e+00 -6.884759685138536867e+00 -6.650293895948020229e+00 -6.358341496217017053e+00 -6.113883181591603488e+00 -6.007412999829194078e+00 -6.108224900584148465e+00 -6.535563646398164117e+00 -6.974683036871899056e+00
-1.933724212189720859e+01 -1.650586318284581466e+01 -1.367448424379441718e+01 -1.365412831953966766e+01 -1.370197039332689748e+01 -1.374989286725401527e+01 -1.370691789737047728e+01 -1.364482308055135995e+01 -1.363923283107805062e+01 -1.367804209159010043e+01 -1.370059790922848109e+01 -1.368618285975723481e+01 -1.366707035810157578e+01 -1.355504790975211193e+01 -1.343335157949018210e+01 -1.347819736323650730e+01 -1.356051718728951094e+01 -1.363082356686656560e+01 -1.370388407661943830e+01 -1.375424205819843593e+01 -1.372836907686073182e+01 -1.369987809430852188e+01 -1.359305978176725027e+01 -1.348624146922661460e+01 -1.345905032615371333e+01 -1.345180697878403819e+01 -1.345631369515297493e+01 -1.348257722302281714e+01 -1.354281425035424036e+01 -1.368363708891005714e+01 -1.382055595840058970e+01 -1.368084177457914663e+01 -1.354112759075770533e+01 -1.349655453397552307e+01 -1.348091383768667306e+01 -1.341650219928020604e+01 -1.331684146527248913e+01 -1.318983953403310316e+01 -1.297750087641894012e+01 -1.277012030743193094e+01 -1.287105212666541121e+01 -1.297608854960921576e+01 -1.296527521528475191e+01 -1.291334440632222069e+01 -1.291616041135526771e+01 -1.296503632554599861e+01 -1.296685389474541594e+01 -1.286569808203864262e+01 -1.277290661292467355e+01 -1.272375830727942514e+01 -1.266921122414828460e+01 -1.260069085551757695e+01 -1.253560822667880714e+01 -1.251196390987972329e+01 -1.252962123626784674e+01 -1.248408801589738104e+01 -1.223426840627755041e+01 -1.198460013379114386e+01 -1.189228428363694157e+01 -1.179459733512805286e+01 -1.195388223418958873e+01 -1.222532689158961183e+01 -1.236379956663334667e+01 -1.235666209216986644e+01 -1.232132036024537314e+01 -1.216886251261567153e+01 -1.201822131697443652e+01 -1.185833528972892026e+01 -1.170668546302800728e+01 -1.171895102789432208e+01 -1.182250698375596265e+01 -1.188159706051385989e+01 -1.184636335873378776e+01 -1.178639776055961441e+01 -1.169136738183358659e+01 -1.159736639014623982e+01 -1.162785806542063760e+01 -1.166144746709430891e+01 -1.171290583794797335e+01 -1.178297523429941407e+01 -1.181872670878521880e+01 -1.178434693584015491e+01 -1.174741389167838257e+01 -1.177467728353148146e+01 -1.181940574379956033e+01 -1.187439034219919698e+01 -1.191846744726911567e+01 -1.187088927239881464e+01 -1.178238128620531810e+01 -1.161680018698695349e+01 -1.131913141062396200e+01 -1.102081725297614412e+01 -1.078225605575194912e+01 -1.054867427071524233e+01 -1.031166415022994443e+01 -1.007642945296718473e+01 -9.904523917689935786e+00 -9.776007405245332293e+00 -9.625548221683200012e+00 -9.397042099813344151e+00 -9.110466195775273945e+00 -8.730987461797175442e+00 -8.414639008699046130e+00 -8.191131409711548628e+00 -8.004512494406274214e+00 -7.752812794321599199e+00 -7.440458689245513568e+00 -7.183314325407559764e+00 -7.033855386650717634e+00 -6.890032079419087019e+00 -6.734261276363866955e+00 -6.522127439822270389e+00 -6.027556447624476732e+00 -5.597589045951281150e+00 -5.795054122204991387e+00 -6.340933954056890087e+00 -6.748105240793039528e+00
-1.930153306336308816e+01 -1.645229959504463579e+01 -1.360306612672617987e+01 -1.360161000697083011e+01 -1.362803454434484607e+01 -1.365807902551708786e+01 -1.366187351520638593e+01 -1.364545726423909855e+01 -1.364989977504147411e+01 -1.367300974536629177e+01 -1.367959666799235308e+01 -1.367998145192549231e+01 -1.364251544838390373e+01 -1.356024459590797981e+01 -1.348648021712484812e+01 -1.352660062933582452e+01 -1.358177687733761907e+01 -1.361860235671130681e+01 -1.367009407518352582e+01 -1.370747671693030512e+01 -1.371131457976142265e+01 -1.366288666841512978e+01 -1.355606835587449410e+01 -1.346194950291746295e+01 -1.345751446099410842e+01 -1.345307941907075211e+01 -1.345733492267798681e+01 -1.347011245183502481e+01 -1.357101644211806146e+01 -1.372176285246239757e+01 -1.376990002564521198e+01 -1.363245843323932149e+01 -1.350597734234501779e+01 -1.349156271586298672e+01 -1.347714808938095743e+01 -1.339715091224046262e+01 -1.330567145761723680e+01 -1.314078646882703616e+01 -1.292622561230885836e+01 -1.281825123487744200e+01 -1.291527777454495052e+01 -1.299922226635410638e+01 -1.294729145739157516e+01 -1.289536064842904217e+01 -1.293867323767056909e+01 -1.300113817005352423e+01 -1.297003467109459685e+01 -1.287060851808210060e+01 -1.279568400780960502e+01 -1.277202875892818668e+01 -1.274390066267537946e+01 -1.264633345518485186e+01 -1.255541023337791628e+01 -1.254058899427611529e+01 -1.254612226057886737e+01 -1.241515665560783432e+01 -1.217416870188107580e+01 -1.199201490108153223e+01 -1.194396501817019640e+01 -1.191296306513837067e+01 -1.220113333384742127e+01 -1.246987758760663745e+01 -1.244013107796422446e+01 -1.235607685780890286e+01 -1.227989773280533647e+01 -1.218354049502747749e+01 -1.205245608482798758e+01 -1.187231790008243770e+01 -1.170756316797373486e+01 -1.173565388176772295e+01 -1.176854351150543998e+01 -1.180538174694713760e+01 -1.182350552744391692e+01 -1.177011133090036665e+01 -1.166329563999165231e+01 -1.159328718036372941e+01 -1.162650765270856823e+01 -1.166503974837127089e+01 -1.171128665600081575e+01 -1.175488416758634713e+01 -1.178651253362229667e+01 -1.180265023675739222e+01 -1.185457150844750629e+01 -1.193775539124700735e+01 -1.194977393015147626e+01 -1.184493024685507656e+01 -1.180585853069165481e+01 -1.178042239920456069e+01 -1.172245884107625180e+01 -1.151256877276133039e+01 -1.124713313254078528e+01 -1.097898074147171599e+01 -1.072102731056589420e+01 -1.047405934711055586e+01 -1.024343897498011913e+01 -1.001016175689399290e+01 -9.845514217528467782e+00 -9.688062817202482080e+00 -9.573348260657565945e+00 -9.494656328642950172e+00 -9.136061124024267954e+00 -8.562428003931586318e+00 -8.118501685413640701e+00 -7.945516698133562983e+00 -7.772228949959755440e+00 -7.581317374400251552e+00 -7.341046055462534525e+00 -7.132013184037892195e+00 -6.939682647221758316e+00 -6.846719500846676354e+00 -6.864290713914209974e+00 -6.718031407169609004e+00 -6.115480815890020239e+00 -5.532732259717072942e+00 -5.775328594566417451e+00 -6.161844761383532543e+00 -6.517170886069927782e+00
-1.929816714625833640e+01 -1.644725071938750460e+01 -1.359633429251667280e+01 -1.359150813286899506e+01 -1.359716277092799430e+01 -1.360968316462477468e+01 -1.363777986413415810e+01 -1.366191495383285037e+01 -1.363077096742779659e+01 -1.360429485582464793e+01 -1.356308927011557941e+01 -1.353204616183495190e+01 -1.353109747944508712e+01 -1.352109985130193692e+01 -1.350815514425739927e+01 -1.351683680909008167e+01 -1.353273267236016864e+01 -1.352204300976262452e+01 -1.350474544426906576e+01 -1.359539701745452156e+01 -1.366630431743611851e+01 -1.362348301419596019e+01 -1.353648683785649531e+01 -1.346967929538188002e+01 -1.344146968454048263e+01 -1.342816659338764218e+01 -1.342494143041051835e+01 -1.341861268673548935e+01 -1.357215312574913035e+01 -1.373058193934852689e+01 -1.371048501954126309e+01 -1.360721371128668089e+01 -1.353250183264507456e+01 -1.350539426875386795e+01 -1.346781744745644360e+01 -1.337483549348797141e+01 -1.327992323308368583e+01 -1.306791152097241060e+01 -1.285192269706376322e+01 -1.285280450834620503e+01 -1.295101846899109788e+01 -1.300534982167904552e+01 -1.299054726561922024e+01 -1.296794373664704914e+01 -1.298981464723296853e+01 -1.302738494459160457e+01 -1.293758623982798284e+01 -1.283617701393748867e+01 -1.278749214102970377e+01 -1.276383689214828365e+01 -1.271318116225074846e+01 -1.262447397894542789e+01 -1.255159944646326764e+01 -1.255906307149357559e+01 -1.256221207225114256e+01 -1.236779926675171559e+01 -1.211645423487858331e+01 -1.197537511675434629e+01 -1.192732523384300691e+01 -1.201362075270475671e+01 -1.230428498287679417e+01 -1.253789751718387357e+01 -1.242686538607953395e+01 -1.231583325497519255e+01 -1.224927861848976285e+01 -1.218836647951687624e+01 -1.203770140563040947e+01 -1.183159398337418011e+01 -1.171729104639540076e+01 -1.174538176018938884e+01 -1.177356380981135331e+01 -1.180239348576462710e+01 -1.183122316171790089e+01 -1.174442407977441505e+01 -1.164019319226431648e+01 -1.161158162794721349e+01 -1.163043171934181252e+01 -1.166417731379937095e+01 -1.171857232175978858e+01 -1.176772149188863814e+01 -1.179359447322634225e+01 -1.181946745456404635e+01 -1.193871139856116592e+01 -1.207435938705507183e+01 -1.197211055930341317e+01 -1.170857601142877158e+01 -1.155724046927407223e+01 -1.163177536725964600e+01 -1.165291677411648052e+01 -1.143321962819732995e+01 -1.120220598174816118e+01 -1.092413303249220036e+01 -1.064462645182901923e+01 -1.039971114404147734e+01 -1.017627935769944436e+01 -9.967349802144035209e+00 -9.788894437697575057e+00 -9.612210469291884607e+00 -9.424736781933631846e+00 -9.264589365936050314e+00 -8.916807813835053054e+00 -8.460373090182693900e+00 -8.118284761089654467e+00 -7.889325937226034924e+00 -7.662443496723192027e+00 -7.518143269907804793e+00 -7.416741085230375674e+00 -7.272313494212717444e+00 -7.116131893682561937e+00 -7.004925436737840627e+00 -6.940344882534322579e+00 -6.708387559730657479e+00 -6.244120522399459361e+00 -5.822184875000387727e+00 -5.756490292461941216e+00 -5.801852171694693361e+00 -6.267168538741405115e+00
-1.930315785947223617e+01 -1.645473678920835425e+01 -1.360631571894447234e+01 -1.360437061761607325e+01 -1.360545338510544333e+01 -1.358815690776771135e+01 -1.357923868223478792e+01 -1.360922520383207335e+01 -1.364261675542445218e+01 -1.361450248871591562e+01 -1.351199169744326767e+01 -1.343326747513234665e+01 -1.346312053799827169e+01 -1.349289788898404652e+01 -1.346856773576836197e+01 -1.343896885582764789e+01 -1.347846388900508963e+01 -1.354203745786450064e+01 -1.358788092427283090e+01 -1.364262935861173709e+01 -1.369232166257464556e+01 -1.360742149533021816e+01 -1.352770646572673385e+01 -1.346348104172357907e+01 -1.339042486178672675e+01 -1.336854838660465816e+01 -1.337486814876884544e+01 -1.342075041945382097e+01 -1.356513899752992813e+01 -1.370391072407224797e+01 -1.364555804084640833e+01 -1.357978715264987635e+01 -1.354688868793586565e+01 -1.352056854081384785e+01 -1.346220102796754148e+01 -1.337515564605273788e+01 -1.327317814893627101e+01 -1.312401386061231889e+01 -1.295775220972940645e+01 -1.295004469391110291e+01 -1.297561306919188340e+01 -1.301524085997770719e+01 -1.305297106701661214e+01 -1.306857635899744174e+01 -1.305319634856143018e+01 -1.301746173864005129e+01 -1.291941103502767163e+01 -1.282133739476208945e+01 -1.278093390950593111e+01 -1.274570802535344427e+01 -1.268210581554965444e+01 -1.260213803536852417e+01 -1.256809792868816622e+01 -1.258375461903077408e+01 -1.257778199342338787e+01 -1.248315211482901077e+01 -1.235006883067288541e+01 -1.221163388204097977e+01 -1.208699291992039271e+01 -1.222552543069206443e+01 -1.246540840008632323e+01 -1.252969074291347695e+01 -1.240160061241601497e+01 -1.229016660855198140e+01 -1.222818460547615516e+01 -1.216727246650326677e+01 -1.198376663772930861e+01 -1.179258239971675337e+01 -1.177907463348646822e+01 -1.182272425784336178e+01 -1.182084134604650671e+01 -1.180444949566342494e+01 -1.179797490264862070e+01 -1.170832868508636437e+01 -1.160409779757626225e+01 -1.161810945770140435e+01 -1.163695954909600161e+01 -1.169263854389190627e+01 -1.175861158803056483e+01 -1.179304948130029551e+01 -1.180170430763794265e+01 -1.184299542513946690e+01 -1.198261768667968674e+01 -1.212133459565567151e+01 -1.188084794275210498e+01 -1.161731339487746340e+01 -1.157388754032653821e+01 -1.163043866048891672e+01 -1.157318644690190901e+01 -1.136694198134754785e+01 -1.114775981335944977e+01 -1.086029216956991661e+01 -1.055802605840585784e+01 -1.032233620551290620e+01 -1.009890441917087323e+01 -9.905526871625399465e+00 -9.727003850281224828e+00 -9.530090586385608020e+00 -9.307213338904949396e+00 -9.075109706588760261e+00 -8.794573107201554052e+00 -8.514036507814346066e+00 -8.392124468044663388e+00 -8.235289779915669683e+00 -7.928991616161633615e+00 -7.603573857204304787e+00 -7.391562635652157986e+00 -7.280412490556724237e+00 -7.167102036475720084e+00 -7.040694247391987126e+00 -6.914286458308254169e+00 -6.758372902413507965e+00 -6.594523445280673357e+00 -6.213635635533988122e+00 -5.841345066943237185e+00 -5.866550346806969962e+00 -6.391390961256165681e+00
-1.931985893934983523e+01 -1.647978840902475284e+01 -1.363971787869967045e+01 -1.362846070076802363e+01 -1.362677528418200978e+01 -1.364392741593993463e+01 -1.364677312091732730e+01 -1.366594832090899025e+01 -1.369858170600497793e+01 -1.361677673787716891e+01 -1.348095236587952073e+01 -1.341472106533266206e+01 -1.344461497872528355e+01 -1.346366170619105773e+01 -1.343247815481186080e+01 -1.340008355985774102e+01 -1.349498684372794166e+01 -1.359449501922915715e+01 -1.364532103121095830e+01 -1.368643613526228542e+01 -1.368700499729332698e+01 -1.359524855655257447e+01 -1.351262400561658872e+01 -1.349170323895402746e+01 -1.345798993660609000e+01 -1.339148290489091231e+01 -1.334136682363807935e+01 -1.342173877055298803e+01 -1.356068692343822235e+01 -1.362534936186197321e+01 -1.358072544963492412e+01 -1.353942117932946410e+01 -1.352605774542110240e+01 -1.350951510556154567e+01 -1.345873479876186174e+01 -1.339578309180260263e+01 -1.329690226391449315e+01 -1.318145733450685064e+01 -1.308697140230360922e+01 -1.301900403617689861e+01 -1.295299779320777667e+01 -1.298359131002444755e+01 -1.302178721413973506e+01 -1.305624311521630432e+01 -1.307915281214032710e+01 -1.301183073354124353e+01 -1.289879622753750610e+01 -1.281742363316729794e+01 -1.277648329346831346e+01 -1.272613765587307633e+01 -1.266402892031632454e+01 -1.260583159420757582e+01 -1.261168705015347413e+01 -1.262874056530748135e+01 -1.262949447630273525e+01 -1.260609467695581820e+01 -1.252410359330016298e+01 -1.236631833031410466e+01 -1.224706601471815226e+01 -1.242535260154241961e+01 -1.266670954849905151e+01 -1.257663823915238410e+01 -1.243327654812933503e+01 -1.232064057795620826e+01 -1.223298565293672979e+01 -1.214261738564631976e+01 -1.201390103146967903e+01 -1.186554781066821462e+01 -1.188670225048443463e+01 -1.195269891379445149e+01 -1.185917307015357558e+01 -1.173732347747207427e+01 -1.166821878078294539e+01 -1.161270342522950116e+01 -1.159255172136833423e+01 -1.165912151124262941e+01 -1.170474949000835352e+01 -1.174637157104159790e+01 -1.180850715362503323e+01 -1.181438830349757119e+01 -1.179335495960578051e+01 -1.186092627848906211e+01 -1.199773171211963074e+01 -1.201806142326227622e+01 -1.175148593549680776e+01 -1.149965763745905534e+01 -1.157055433616880613e+01 -1.163804477991340391e+01 -1.149698089890093122e+01 -1.129510288129609208e+01 -1.107645549505940252e+01 -1.083449988303614653e+01 -1.057295823201014429e+01 -1.030038793645828399e+01 -1.004035140674884374e+01 -9.852586177979727466e+00 -9.667659624954998421e+00 -9.463907605349881180e+00 -9.241558369253761285e+00 -8.977959240720194245e+00 -8.697422641332988036e+00 -8.460984962437958501e+00 -8.355644997205109448e+00 -8.250305031972260394e+00 -7.983085645094778471e+00 -7.675465477856660002e+00 -7.448774950725246313e+00 -7.280784788838557731e+00 -7.144221094099043157e+00 -6.996918940977375989e+00 -6.862750869853243785e+00 -6.703077728408104896e+00 -6.543404586963919911e+00 -6.136306518891395001e+00 -5.723817799278649865e+00 -6.027497290739870728e+00 -6.604094405213670527e+00
-1.932828239220080135e+01 -1.649242358830120381e+01 -1.365656478440160448e+01 -1.361143483821682665e+01 -1.362987533725578437e+01 -1.368948642208370003e+01 -1.373219707971481895e+01 -1.373938404606186836e+01 -1.373637084862936497e+01 -1.359622733686458673e+01 -1.345714361816811078e+01 -1.346979050351917628e+01 -1.351571723810954140e+01 -1.349636833019812165e+01 -1.343302498079402163e+01 -1.342318894485162950e+01 -1.353447221397442135e+01 -1.364733811471082880e+01 -1.363194836686276901e+01 -1.362824971834857735e+01 -1.364770670236283578e+01 -1.364550234362687142e+01 -1.359470989196773516e+01 -1.353269393456655578e+01 -1.348387519742423812e+01 -1.341099915567332168e+01 -1.331587540254774105e+01 -1.343261774500019179e+01 -1.358260101936170905e+01 -1.359768575643931499e+01 -1.356391034818359387e+01 -1.352590198366481111e+01 -1.349227853918341324e+01 -1.346267640042480629e+01 -1.342550012492281830e+01 -1.339226000091992219e+01 -1.330271909757999005e+01 -1.320203577363090908e+01 -1.314799457840477892e+01 -1.310889430340576034e+01 -1.305099463221409550e+01 -1.299810530218783455e+01 -1.298843161218857745e+01 -1.305171107394982499e+01 -1.310840507479512240e+01 -1.299525429563069778e+01 -1.286871238208792967e+01 -1.282148463569990149e+01 -1.280717641414830865e+01 -1.277287038678388953e+01 -1.272030630995241474e+01 -1.267257608286540105e+01 -1.266142662000369157e+01 -1.266019324776986821e+01 -1.268121813181488911e+01 -1.270721340666149679e+01 -1.259339685501720751e+01 -1.240346992526553294e+01 -1.224777511665546825e+01 -1.219140046348997686e+01 -1.223559881127023274e+01 -1.237559872044351827e+01 -1.243884315562347709e+01 -1.233423243968627503e+01 -1.222624193041997032e+01 -1.217632522080152668e+01 -1.215121848865112675e+01 -1.206564911823968522e+01 -1.194889328341513135e+01 -1.188901373020456020e+01 -1.188586306607976617e+01 -1.184130683945540774e+01 -1.170614328433201301e+01 -1.158986077521471003e+01 -1.162091410106361344e+01 -1.173321738586224861e+01 -1.180675400570815725e+01 -1.178827218327704074e+01 -1.179618600053975896e+01 -1.185321076602782142e+01 -1.188866232352420838e+01 -1.186383851599308237e+01 -1.188846408992634629e+01 -1.181823212676012602e+01 -1.162211475724437548e+01 -1.148899428555427704e+01 -1.154849864297533379e+01 -1.159303270184653911e+01 -1.140195218061557902e+01 -1.120822226334071914e+01 -1.098955561686333127e+01 -1.076741864045417074e+01 -1.052792183952124994e+01 -1.026560183840885898e+01 -1.001159819360453795e+01 -9.802795354926258753e+00 -9.610368320072909754e+00 -9.444165429644195697e+00 -9.264185835714958017e+00 -8.940090558541569976e+00 -8.607210069872936131e+00 -8.431058997115142617e+00 -8.343651303256557128e+00 -8.217444191530223208e+00 -8.038145192885364665e+00 -7.858177857383248366e+00 -7.602545876962173210e+00 -7.357201246099238645e+00 -7.372619476498901037e+00 -7.383916543203733696e+00 -7.259073396569688974e+00 -7.050683717648055904e+00 -6.693632287886810417e+00 -6.109369182819701649e+00 -5.672247986860369906e+00 -6.230009384735700095e+00 -6.803771304455906943e+00
-1.931845238656383756e+01 -1.647767857984575812e+01 -1.363690477312767690e+01 -1.358025171858752778e+01 -1.362088120884201814e+01 -1.368484049565071814e+01 -1.372584120725144707e+01 -1.374699588887839852e+01 -1.370680943245087136e+01 -1.357253744542990681e+01 -1.346037940654145082e+01 -1.351501226412307766e+01 -1.357922059549843929e+01 -1.353068835967271255e+01 -1.344671683572990517e+01 -1.347041237987330042e+01 -1.356912422569316590e+01 -1.361798793127307761e+01 -1.357956660564076223e+01 -1.355774218090855854e+01 -1.361153102456148112e+01 -1.366774212861786886e+01 -1.362489347980630150e+01 -1.354176985544214951e+01 -1.349997675374660133e+01 -1.349547823290964743e+01 -1.345975939303994195e+01 -1.343146773423205786e+01 -1.345313128793053892e+01 -1.351020935164872938e+01 -1.354220183450061477e+01 -1.349684933617264804e+01 -1.344230354071186184e+01 -1.339009951292405454e+01 -1.333558398493918062e+01 -1.328742246003515071e+01 -1.322807740603009030e+01 -1.316416454964431715e+01 -1.316303035242115271e+01 -1.315629468884309183e+01 -1.308434894610152277e+01 -1.299511551351867311e+01 -1.298408966352462102e+01 -1.305018730944047256e+01 -1.307643091442956162e+01 -1.297907267348607263e+01 -1.287915317088413758e+01 -1.285652863576714111e+01 -1.283667451442467211e+01 -1.282499006419739551e+01 -1.280164320571819303e+01 -1.275487712160186504e+01 -1.270515351134082316e+01 -1.267593310654699401e+01 -1.268221140964743121e+01 -1.269010389699834462e+01 -1.254801548534928557e+01 -1.239487547812386481e+01 -1.220382749193685257e+01 -1.201601698106696148e+01 -1.201362198976359963e+01 -1.221340733135916601e+01 -1.238558702616006357e+01 -1.232640875728214525e+01 -1.220319558712535724e+01 -1.218450578193382405e+01 -1.216424144684116726e+01 -1.207170549340495747e+01 -1.195293618674414304e+01 -1.190362696386504027e+01 -1.193799897108517882e+01 -1.193769241508817380e+01 -1.177301096360695176e+01 -1.158279114899866258e+01 -1.163231659948016272e+01 -1.169731539832571166e+01 -1.171725702224867405e+01 -1.171720364607921638e+01 -1.175259685196555992e+01 -1.183330006230814924e+01 -1.187254476864051256e+01 -1.174487691961087954e+01 -1.161009371313114080e+01 -1.163157606342215189e+01 -1.161713490269716154e+01 -1.160312485581832220e+01 -1.161597898584770228e+01 -1.155398108651710487e+01 -1.138539417819113986e+01 -1.118990761513884813e+01 -1.094432581059553300e+01 -1.070093913081534431e+01 -1.047383652170649704e+01 -1.025600472118456175e+01 -1.000516314509483706e+01 -9.755504179748939464e+00 -9.546718268194938517e+00 -9.378765342497201729e+00 -9.178755602989760121e+00 -8.829045554683183639e+00 -8.477935096476631571e+00 -8.406430329009788593e+00 -8.368934164910459828e+00 -8.218868062609356429e+00 -8.025601082267577624e+00 -7.875864895645531050e+00 -7.748538042198833686e+00 -7.611309991809883435e+00 -7.626873946980348151e+00 -7.689823403780710720e+00 -7.676978316853145579e+00 -7.608285962005201242e+00 -7.014517751819504987e+00 -6.200714875723883246e+00 -5.985834567098400782e+00 -6.529860965019086194e+00 -7.037622593363474621e+00
-1.931996090139302780e+01 -1.647994135208954347e+01 -1.363992180278605737e+01 -1.367036890856438092e+01 -1.371487496627058178e+01 -1.376244674873462159e+01 -1.377996513576467663e+01 -1.379663485177825955e+01 -1.367636587698457085e+01 -1.352496975556057990e+01 -1.347945690712146316e+01 -1.351762156780555912e+01 -1.354567898525986358e+01 -1.354176159069409380e+01 -1.351820120794611313e+01 -1.348699402589923757e+01 -1.349415304084162770e+01 -1.349005977338949513e+01 -1.346686314516866645e+01 -1.348463235216909517e+01 -1.354510948586315777e+01 -1.359015416826663269e+01 -1.360945036098664573e+01 -1.360361566699084257e+01 -1.355349096811810838e+01 -1.351637612053038495e+01 -1.347555908802987901e+01 -1.341608733253870156e+01 -1.341046021427392709e+01 -1.348814617321588116e+01 -1.353445036444738570e+01 -1.345867890326942629e+01 -1.339402977244286319e+01 -1.335980309950975986e+01 -1.332178689206356026e+01 -1.323643705858077801e+01 -1.314435906671326570e+01 -1.308957554665804501e+01 -1.308863383655316248e+01 -1.311172754381225225e+01 -1.309533088032991088e+01 -1.302690991375055418e+01 -1.301192929259988773e+01 -1.302099130187146514e+01 -1.298939992412042876e+01 -1.292419963311652609e+01 -1.287198970856346314e+01 -1.285020441779127331e+01 -1.284201845235306827e+01 -1.288762091022284650e+01 -1.292625943440251213e+01 -1.284899923330380034e+01 -1.276901170710356581e+01 -1.275716495442835807e+01 -1.277451066873673824e+01 -1.271785849463253371e+01 -1.255652713993238478e+01 -1.239136996974760407e+01 -1.215422261810919835e+01 -1.192497788887011012e+01 -1.186180974189148074e+01 -1.188129252122089063e+01 -1.195297047069015761e+01 -1.200309141215482889e+01 -1.205490053220053248e+01 -1.213852607101121173e+01 -1.217316148102192486e+01 -1.205923939442475401e+01 -1.195144858408979260e+01 -1.192090420315980026e+01 -1.190208604445798279e+01 -1.186579446202020449e+01 -1.178771401751486891e+01 -1.171798903028580341e+01 -1.171529662320364551e+01 -1.172057964427367338e+01 -1.170330236450351258e+01 -1.168526813918559526e+01 -1.169680238664835414e+01 -1.172704037811850419e+01 -1.168680607859367981e+01 -1.158102119664380503e+01 -1.153399199211614246e+01 -1.160813819716413597e+01 -1.165644755754595074e+01 -1.160521582658171624e+01 -1.157798718717590702e+01 -1.151177493300850507e+01 -1.141290234202198128e+01 -1.122795522864203299e+01 -1.097710422242872852e+01 -1.071456449636758101e+01 -1.043605378289509389e+01 -1.017584545604548829e+01 -9.944493038649543593e+00 -9.703451579639322588e+00 -9.494823961447778515e+00 -9.301076752204645359e+00 -9.021872274994354513e+00 -8.670052191898594884e+00 -8.388618858423706470e+00 -8.277855128931747686e+00 -8.184639605014965014e+00 -8.078160370397615253e+00 -7.951546063692099153e+00 -7.921561738831957911e+00 -7.906770221616021388e+00 -7.849991504240573015e+00 -7.758433628940250237e+00 -7.732502160623465848e+00 -7.865873631831906465e+00 -7.934637693576131134e+00 -7.134517575175770787e+00 -6.324556991400809736e+00 -6.432704431579242765e+00 -6.865522990035139550e+00 -7.266932562623471092e+00
-1.932849789525970152e+01 -1.649274684288955228e+01 -1.365699579051940304e+01 -1.369291184039006026e+01 -1.373307233916752779e+01 -1.378183418703548568e+01 -1.382676964336969583e+01 -1.384243442807632007e+01 -1.360463327170154102e+01 -1.338363062316912533e+01 -1.344149557810309581e+01 -1.353946415947215165e+01 -1.355715185503100173e+01 -1.353512094970138513e+01 -1.351247409011857314e+01 -1.344952522498904202e+01 -1.336982027776701720e+01 -1.332550438145334937e+01 -1.330029662735836737e+01 -1.339376991569655218e+01 -1.349954967731922295e+01 -1.355841887734564466e+01 -1.358765647305499336e+01 -1.359859064324624711e+01 -1.355823694743387442e+01 -1.350883606001158022e+01 -1.348887790455475688e+01 -1.347656500308251992e+01 -1.353939084048153774e+01 -1.362010303117345345e+01 -1.358377625825967527e+01 -1.345599983922851095e+01 -1.336058561236195352e+01 -1.331998207152208380e+01 -1.328490292905488701e+01 -1.316441942159199030e+01 -1.303262703676368872e+01 -1.289616580205547969e+01 -1.280504186598466632e+01 -1.284852662264377621e+01 -1.296654777215415422e+01 -1.301848496822469947e+01 -1.299247232620898274e+01 -1.297133446535804069e+01 -1.292781724762614459e+01 -1.287801732987174752e+01 -1.283785207607412815e+01 -1.279499055113807060e+01 -1.281486649460894967e+01 -1.288188622247463755e+01 -1.291318865324798892e+01 -1.284808747897770154e+01 -1.278003414776967084e+01 -1.279429387408005603e+01 -1.282368495641229522e+01 -1.273614580548263397e+01 -1.257723411137974168e+01 -1.235532033348786030e+01 -1.209386881624966570e+01 -1.188602259597591981e+01 -1.184277700107881515e+01 -1.179843393042706090e+01 -1.177945964586572636e+01 -1.179016739244329059e+01 -1.195602278694273046e+01 -1.214131280212341757e+01 -1.215597095939386740e+01 -1.202045246727682404e+01 -1.191929986805952169e+01 -1.191840546329873973e+01 -1.191206101594336175e+01 -1.186844538965850226e+01 -1.182112863996692553e+01 -1.180355160388506341e+01 -1.179457778132313095e+01 -1.177497696033986507e+01 -1.175915663825202095e+01 -1.174054172051564038e+01 -1.171377017384399721e+01 -1.170098713335819340e+01 -1.160704978328919168e+01 -1.150178497562860969e+01 -1.151734402900531684e+01 -1.160161478871942187e+01 -1.162378190913507048e+01 -1.152772517576615208e+01 -1.142626087690802095e+01 -1.142086232218451158e+01 -1.139252791888143435e+01 -1.117622591828382284e+01 -1.094104217349594421e+01 -1.066776209244520501e+01 -1.037431967978109348e+01 -1.011170258150997192e+01 -9.895646616599290013e+00 -9.678706737476092670e+00 -9.461134783905638557e+00 -9.249229384948471022e+00 -8.905237687636910593e+00 -8.546638156125521135e+00 -8.379636838906860064e+00 -8.297178265069256042e+00 -8.172870361829319918e+00 -8.032053949099259071e+00 -7.930071830738729233e+00 -7.969989254588136340e+00 -8.004956500801132080e+00 -7.967185495507528969e+00 -7.909499889235214631e+00 -7.955777564925465839e+00 -8.078349139212399166e+00 -7.851534988869285137e+00 -7.034768141715170842e+00 -6.396549811451666123e+00 -6.804039145118846221e+00 -7.166035384340882608e+00 -7.520582432844908460e+00
-1.934445874730149484e+01 -1.651668812095223871e+01 -1.368891749460298612e+01 -1.369625207137357137e+01 -1.369505082852484001e+01 -1.374451681179502671e+01 -1.381899472658542649e+01 -1.379651455823626272e+01 -1.363334133521151337e+01 -1.348249804769256066e+01 -1.352499849109131347e+01 -1.359269799654982691e+01 -1.355037666079682701e+01 -1.349338193019658938e+01 -1.347088857201402590e+01 -1.346679741935019869e+01 -1.343532500639719451e+01 -1.338614380115643954e+01 -1.335146030431963915e+01 -1.340227423250346561e+01 -1.347239815519901285e+01 -1.354158704742209629e+01 -1.358787427047295004e+01 -1.357621872392140361e+01 -1.355703289350149987e+01 -1.352777112301656537e+01 -1.348430032713818605e+01 -1.345911493917674839e+01 -1.351657676647372952e+01 -1.358910205272603022e+01 -1.352078460775410207e+01 -1.341348768308070660e+01 -1.332805686819651747e+01 -1.326261264194253542e+01 -1.319032916028084479e+01 -1.310462560487708927e+01 -1.301056327779139998e+01 -1.292591879201723515e+01 -1.282526462204002726e+01 -1.288019971632122562e+01 -1.297977557806542492e+01 -1.300317776061393538e+01 -1.296550226131314787e+01 -1.292898864950081084e+01 -1.290056024262122136e+01 -1.287463428207042604e+01 -1.288243495205766465e+01 -1.287668605418484447e+01 -1.289022515755177167e+01 -1.292050899040204115e+01 -1.290592651421162707e+01 -1.284908112217041598e+01 -1.279360478775606325e+01 -1.276154031773728192e+01 -1.274612423634663649e+01 -1.270339154145582228e+01 -1.263215185103228855e+01 -1.241077701346281792e+01 -1.215140111587801819e+01 -1.195623369779646339e+01 -1.184224694587959092e+01 -1.175778298691300172e+01 -1.167097767809588937e+01 -1.160305978265630422e+01 -1.195903916208564866e+01 -1.227399837201215682e+01 -1.216845356933882982e+01 -1.198019134580823319e+01 -1.192681662396292452e+01 -1.196182986874922882e+01 -1.196570605121950770e+01 -1.192128219477769413e+01 -1.186557753252998459e+01 -1.186130164440331214e+01 -1.187104495461362674e+01 -1.181093567399409139e+01 -1.174664662326070008e+01 -1.170963629856947286e+01 -1.168554889105445405e+01 -1.164462686262131541e+01 -1.155807572908948444e+01 -1.146728562555598607e+01 -1.150165767253201565e+01 -1.155393091335178823e+01 -1.158280454589056063e+01 -1.157672432404285168e+01 -1.152458493562005692e+01 -1.145946069165371384e+01 -1.136172163670426727e+01 -1.113339059451515389e+01 -1.090247610561545244e+01 -1.061481961730893886e+01 -1.031966929877978778e+01 -1.008386851184260813e+01 -9.870140499479870044e+00 -9.656499154993053224e+00 -9.442377300319716227e+00 -9.207175414700124350e+00 -8.891348607696372142e+00 -8.547325189218963004e+00 -8.468801841661342422e+00 -8.430894973017418081e+00 -8.296030782362242562e+00 -8.098966530579915002e+00 -8.033266242088121345e+00 -8.093925968231779677e+00 -8.132895036598297267e+00 -8.111121998516807707e+00 -8.081257058333973120e+00 -8.041553471542115972e+00 -8.097163438995456985e+00 -7.534677429973403839e+00 -6.600111376953026188e+00 -6.357369152656879407e+00 -6.904770485782686151e+00 -7.383860653218219383e+00 -7.752920941459035653e+00
-1.937939763662870263e+01 -1.656909645494305039e+01 -1.375879527325740348e+01 -1.380035153706114670e+01 -1.383142143971364924e+01 -1.386166407737520601e+01 -1.389988513594509101e+01 -1.382379795235481268e+01 -1.370664971008372390e+01 -1.363067083329515228e+01 -1.360887780850765161e+01 -1.359094979537023384e+01 -1.354617144480666013e+01 -1.349845096926486931e+01 -1.346579249167544390e+01 -1.344210396609261338e+01 -1.342308776651281121e+01 -1.339862051773586593e+01 -1.337655885286482160e+01 -1.337713238723304343e+01 -1.343103442360759381e+01 -1.357873721493045949e+01 -1.369493388132353218e+01 -1.359685099814188902e+01 -1.351590162862122391e+01 -1.350855538545934031e+01 -1.350649722518979701e+01 -1.347645272742477118e+01 -1.345490336717786128e+01 -1.345761777354333510e+01 -1.343019388920293089e+01 -1.337820203842713696e+01 -1.331940168580747574e+01 -1.325898581574087132e+01 -1.317798878176356148e+01 -1.308894079843137881e+01 -1.302121502799689168e+01 -1.297341191661091209e+01 -1.294165168760955709e+01 -1.299085027428301053e+01 -1.302683999655705449e+01 -1.299888638950871211e+01 -1.297028985185600902e+01 -1.294677383967040818e+01 -1.292390005704525535e+01 -1.291698161192661054e+01 -1.293436194982315968e+01 -1.294671431069834888e+01 -1.293797531459388139e+01 -1.294158982922171752e+01 -1.291962572794710873e+01 -1.287857517046272093e+01 -1.279501835134247401e+01 -1.270778076656385203e+01 -1.267487689738214662e+01 -1.268728526818923896e+01 -1.265204599411834785e+01 -1.244021708759308176e+01 -1.222501978204296513e+01 -1.200566078571638151e+01 -1.179763886888855851e+01 -1.168992307595615898e+01 -1.162269622636854649e+01 -1.173181078892628193e+01 -1.210290428172049104e+01 -1.238763961671315172e+01 -1.221160456427846164e+01 -1.200880354304701747e+01 -1.199062177503256166e+01 -1.204841008610692121e+01 -1.209357208006581175e+01 -1.208918964682545649e+01 -1.204336726061985630e+01 -1.196445655352945359e+01 -1.190876882093876077e+01 -1.185224974157355859e+01 -1.178074291513380345e+01 -1.172254953096912367e+01 -1.167404684914248136e+01 -1.160707475568048075e+01 -1.153780284308820647e+01 -1.147755856010627973e+01 -1.145044820276189057e+01 -1.145264003188261981e+01 -1.153066236497330266e+01 -1.159602071664638956e+01 -1.154952654049870020e+01 -1.147949833645599682e+01 -1.132036114092157497e+01 -1.110076986372360608e+01 -1.086518768479081132e+01 -1.060057813983134167e+01 -1.033444780276021469e+01 -1.012119820845497919e+01 -9.904769321570363161e+00 -9.664677376385888863e+00 -9.430516415462331992e+00 -9.208752436539123565e+00 -8.979681087497281666e+00 -8.752668825782009776e+00 -8.567456131394290963e+00 -8.424833732733166158e+00 -8.359419514723896327e+00 -8.258466192150429208e+00 -8.278716221052141222e+00 -8.326828161356793601e+00 -8.307431709750813908e+00 -8.263981707359926432e+00 -8.138448608224740255e+00 -7.805728176641746785e+00 -7.550739596027030487e+00 -7.086690331077326377e+00 -6.505804727654870945e+00 -6.727810671045835633e+00 -7.192683903034392756e+00 -7.629413250971728289e+00 -8.013469904492749762e+00
-1.944046825745392937e+01 -1.666070238618089050e+01 -1.388093651490785518e+01 -1.388620518668724380e+01 -1.390160938758069520e+01 -1.391952587552107268e+01 -1.394002422252098228e+01 -1.387463999103057333e+01 -1.378353634581973530e+01 -1.369968733814082285e+01 -1.363259168542129274e+01 -1.358300429256824238e+01 -1.353844244788010087e+01 -1.350141346280348387e+01 -1.347172346876188342e+01 -1.343639392820172773e+01 -1.342183048735970274e+01 -1.339674534747548407e+01 -1.331549338673288219e+01 -1.325155855145779782e+01 -1.336451952714947211e+01 -1.357607865717515416e+01 -1.367228053162895840e+01 -1.356799666387731484e+01 -1.347123819957753099e+01 -1.349778291580276246e+01 -1.354453845931131539e+01 -1.347093750868540951e+01 -1.335643944596148103e+01 -1.336923580526496202e+01 -1.343856315266441115e+01 -1.343238574261000728e+01 -1.332853365778855803e+01 -1.323999963679896474e+01 -1.317058015333766541e+01 -1.309124449262161249e+01 -1.304348505209157416e+01 -1.302416491987645131e+01 -1.306564024912095690e+01 -1.315546211392572218e+01 -1.316866430898154761e+01 -1.304364053377071997e+01 -1.294870766751313340e+01 -1.293798329928294777e+01 -1.292794025134723768e+01 -1.293534704853180983e+01 -1.295914583777017093e+01 -1.295134475865206269e+01 -1.290461308678066032e+01 -1.289546502138929540e+01 -1.294201816630325652e+01 -1.296184297901899640e+01 -1.280651952496965507e+01 -1.266323174768436743e+01 -1.265173502895411417e+01 -1.268404164019407432e+01 -1.260391270621439652e+01 -1.240746097246174173e+01 -1.218668617263396925e+01 -1.192708261232453282e+01 -1.168165381608174158e+01 -1.174303994588560229e+01 -1.175882699327286574e+01 -1.198849470763624225e+01 -1.231907801483840714e+01 -1.244314877351944659e+01 -1.234473637744708086e+01 -1.221173969210862786e+01 -1.204432691184084447e+01 -1.193217202282799327e+01 -1.201983942560955043e+01 -1.209613813954567796e+01 -1.208989640789368103e+01 -1.203364899591259984e+01 -1.197405314912878005e+01 -1.193856933133618092e+01 -1.189961871900709589e+01 -1.182268356914241636e+01 -1.175253050236561236e+01 -1.162542056890190878e+01 -1.151078074163454090e+01 -1.147976109297655611e+01 -1.146084878211834024e+01 -1.146809175623685739e+01 -1.153159954508466711e+01 -1.157728955184333941e+01 -1.152224254439249407e+01 -1.147242127749841778e+01 -1.128390781203716031e+01 -1.108238174498824868e+01 -1.082422826505363389e+01 -1.054998149000906693e+01 -1.032013463942957898e+01 -1.013481607472444246e+01 -9.932862032982182399e+00 -9.671836299024434425e+00 -9.404544596036078730e+00 -9.223401927020109525e+00 -9.035419819602791947e+00 -8.844690400738310032e+00 -8.655332354047716947e+00 -8.519217294743258506e+00 -8.467766385324679845e+00 -8.446591924627773196e+00 -8.526909931897284523e+00 -8.626621182096284812e+00 -8.489284362339120094e+00 -8.344520202680332233e+00 -7.956765417150261754e+00 -7.470905361443056947e+00 -7.131395501868224684e+00 -6.903485451095092706e+00 -6.708309518369532043e+00 -7.078915103580904145e+00 -7.470715510636038559e+00 -7.917435433180847859e+00 -8.347620727134849261e+00
-1.945915683236565386e+01 -1.668873524854848256e+01 -1.391831366473130949e+01 -1.391136555950458842e+01 -1.389199401936749823e+01 -1.387257174355154632e+01 -1.387993707209504812e+01 -1.389091064323269009e+01 -1.385496136382877097e+01 -1.373233276567735928e+01 -1.362317802350530904e+01 -1.358346478341846542e+01 -1.354137084484449893e+01 -1.351896250083676954e+01 -1.351454733440618838e+01 -1.352205618634471307e+01 -1.353985176545171143e+01 -1.351992136628117969e+01 -1.338336745035985231e+01 -1.325551858149080964e+01 -1.341409175843480384e+01 -1.361092935178460017e+01 -1.362647202328713014e+01 -1.353706241618153250e+01 -1.345406648800066485e+01 -1.341845369899126794e+01 -1.340888495219954812e+01 -1.341609580028250193e+01 -1.338878939430116688e+01 -1.345849379440227622e+01 -1.354055298947819352e+01 -1.347091092437754511e+01 -1.332731097322346336e+01 -1.322620655408430679e+01 -1.318141397241651802e+01 -1.312220629711098496e+01 -1.301328760456189215e+01 -1.292650987247778716e+01 -1.308488917250059913e+01 -1.325235717350490816e+01 -1.318716911673151415e+01 -1.301120167238898873e+01 -1.290688129336065515e+01 -1.290056543263150779e+01 -1.288939432179611977e+01 -1.285951524871291696e+01 -1.284280718408905031e+01 -1.285302642044086063e+01 -1.285188440277539357e+01 -1.289276673994010025e+01 -1.296820697241741449e+01 -1.295519312546747237e+01 -1.278902967696269499e+01 -1.264762920411636671e+01 -1.265455622923033019e+01 -1.266521272193722325e+01 -1.249657762989443555e+01 -1.229998772181794564e+01 -1.209254625147949547e+01 -1.186196055569224050e+01 -1.173869220507655342e+01 -1.186057635466748295e+01 -1.202071210073225593e+01 -1.231775235685529246e+01 -1.257830979644296754e+01 -1.251313269384483107e+01 -1.239106805479540796e+01 -1.220708282013872470e+01 -1.198656325626028263e+01 -1.189083478749641998e+01 -1.201153285281965921e+01 -1.210666287116389483e+01 -1.211581285873162095e+01 -1.215196364337069213e+01 -1.209938248140885619e+01 -1.204038602319311835e+01 -1.193976193338681036e+01 -1.181818146871851027e+01 -1.172053488492237427e+01 -1.162563322938830979e+01 -1.151765864816505314e+01 -1.154732027889896528e+01 -1.157561935566276290e+01 -1.160406857847825890e+01 -1.164061815465959526e+01 -1.163862864115963269e+01 -1.159602470748629699e+01 -1.150416013830134254e+01 -1.130401596979559109e+01 -1.109862813246198243e+01 -1.079476506615402442e+01 -1.048813141281780759e+01 -1.027442266484429112e+01 -1.010053949017125419e+01 -9.901710064629472896e+00 -9.672531296969335557e+00 -9.430777628824142056e+00 -9.195424090677366991e+00 -8.987546712654925329e+00 -8.885547444024943786e+00 -8.750961054513270554e+00 -8.638728170194688971e+00 -8.540318604551583093e+00 -8.502411072029975259e+00 -8.523086018579355994e+00 -8.381345586561616656e+00 -7.821737248299365675e+00 -7.417327754936979822e+00 -7.302730767975706527e+00 -7.040375723142973996e+00 -6.967532323809349393e+00 -6.923421970017448857e+00 -7.004531688398380140e+00 -7.309953536640251492e+00 -7.667371240048760583e+00 -8.128590089690163722e+00 -8.586818926453872791e+00
-1.943081891906178527e+01 -1.664622837859268145e+01 -1.386163783812357408e+01 -1.387392321615959645e+01 -1.384242805907114793e+01 -1.381373372178724246e+01 -1.383826411929448241e+01 -1.387817800532059387e+01 -1.382073963812372241e+01 -1.368857196871901571e+01 -1.360352564327355296e+01 -1.360292214172712200e+01 -1.357743924796712065e+01 -1.353538783052497152e+01 -1.350257127004267943e+01 -1.352905686549448738e+01 -1.357069498409303066e+01 -1.353690580747798933e+01 -1.342528356384716659e+01 -1.336326211509102002e+01 -1.348117551774834766e+01 -1.362049498387899860e+01 -1.359556073546934130e+01 -1.355480608255609276e+01 -1.346821904694814975e+01 -1.338132774806357261e+01 -1.336093545673552185e+01 -1.339851871399373628e+01 -1.345427965484391564e+01 -1.355317279193097590e+01 -1.365683177013718819e+01 -1.350403274217643457e+01 -1.334320572904314872e+01 -1.327189873928872643e+01 -1.322829462018044921e+01 -1.313811035913692749e+01 -1.300164120105782928e+01 -1.291922935358718050e+01 -1.304959284143464693e+01 -1.325229114771952155e+01 -1.310692239758156141e+01 -1.289502827992287237e+01 -1.282095088589893805e+01 -1.280066704347348150e+01 -1.280354804537382307e+01 -1.281443443877647326e+01 -1.281163508537703066e+01 -1.282019969200571197e+01 -1.283353310756127463e+01 -1.289480224087107274e+01 -1.295317078508367103e+01 -1.283989114512793961e+01 -1.265906143572908782e+01 -1.257514382880416015e+01 -1.259827888814465169e+01 -1.254680092690928817e+01 -1.225128416738128756e+01 -1.201117663624179421e+01 -1.195194676027862002e+01 -1.183782242604339174e+01 -1.180997885006418358e+01 -1.185224585032833744e+01 -1.199184621656242555e+01 -1.224024755721082158e+01 -1.246433876628567994e+01 -1.249028268922414853e+01 -1.246475353527551988e+01 -1.220833669646625808e+01 -1.193517259156579691e+01 -1.194159591712847579e+01 -1.211012852203974077e+01 -1.214532040037934735e+01 -1.203746586248043826e+01 -1.199461046750764126e+01 -1.207690360870661372e+01 -1.211968363790072090e+01 -1.199675519906573129e+01 -1.184190512114763649e+01 -1.173064524081120119e+01 -1.167064094808902830e+01 -1.165786392800106519e+01 -1.169171603316917540e+01 -1.171896957997321564e+01 -1.172096514636318787e+01 -1.173136299891239176e+01 -1.168744251006640233e+01 -1.164508034049762131e+01 -1.152978591912240525e+01 -1.135247260181724549e+01 -1.111638689929951163e+01 -1.082081783233570604e+01 -1.053212027919861704e+01 -1.031006560031020314e+01 -1.009872952333744678e+01 -9.862808966724514903e+00 -9.632457834772685246e+00 -9.346944800780850215e+00 -9.050721237832595634e+00 -8.901053096666265319e+00 -8.921634947385419068e+00 -8.881043815399781494e+00 -8.778160829780240704e+00 -8.676375493169125264e+00 -8.388351853193345420e+00 -8.170125019936854471e+00 -7.787187099590016537e+00 -7.130617321847904755e+00 -6.648493247464127620e+00 -6.718962055944441403e+00 -6.845738502782780621e+00 -7.107778159607635260e+00 -7.294697381206647790e+00 -7.586459770664662372e+00 -7.886811787357158821e+00 -8.176016841561684956e+00 -8.501578650122056047e+00 -8.766614872431457428e+00
-1.945097717886322286e+01 -1.667646576829483251e+01 -1.390195435772644572e+01 -1.388534513451204688e+01 -1.386404377699446222e+01 -1.383087565096329818e+01 -1.381699193723799013e+01 -1.382172936119356876e+01 -1.367009954682196593e+01 -1.351395353991956583e+01 -1.349688391260255571e+01 -1.354188360955943438e+01 -1.354469173043086094e+01 -1.350082226526169649e+01 -1.347430678792835046e+01 -1.353720607507328744e+01 -1.358232441850260308e+01 -1.351770999663678907e+01 -1.345382676542623201e+01 -1.342745386455469259e+01 -1.345457605222879671e+01 -1.351694247541795768e+01 -1.357964272028314312e+01 -1.359644914573360985e+01 -1.346467477411846048e+01 -1.334190821044959563e+01 -1.333354999358333437e+01 -1.335415351558158115e+01 -1.340976783469785971e+01 -1.348910569084188893e+01 -1.352207595334578549e+01 -1.344584245890640517e+01 -1.335062090418529657e+01 -1.327835979675949929e+01 -1.322244899037122678e+01 -1.311855406568852978e+01 -1.300167573960107248e+01 -1.287367620175231941e+01 -1.278157715541763650e+01 -1.277913945073187385e+01 -1.279856231327202210e+01 -1.276671934115368323e+01 -1.274958812071706227e+01 -1.272753658096628726e+01 -1.277383895099425004e+01 -1.282617294708692945e+01 -1.284048870172682300e+01 -1.283193339311131353e+01 -1.285597076716546816e+01 -1.293339548780816628e+01 -1.299125322685982020e+01 -1.281625015698567438e+01 -1.263239070292864952e+01 -1.258498631288903269e+01 -1.258005672123039531e+01 -1.231709877145724086e+01 -1.183551712863784289e+01 -1.157021464325917037e+01 -1.171781697508000164e+01 -1.179770446623014735e+01 -1.177751999798698535e+01 -1.177333005424614321e+01 -1.183717214292410524e+01 -1.197624190479643502e+01 -1.222891217114536211e+01 -1.248008352127967768e+01 -1.255075107125836631e+01 -1.229236432265494550e+01 -1.203161730407674312e+01 -1.201845455656907724e+01 -1.205252597355609367e+01 -1.206092018586891257e+01 -1.201197035923788725e+01 -1.201631729607854737e+01 -1.211968159597049777e+01 -1.219444900372534057e+01 -1.213467025180230152e+01 -1.203856756872956879e+01 -1.186985009735061070e+01 -1.172780772318686004e+01 -1.173505152953131159e+01 -1.178484099795558393e+01 -1.180520888185844974e+01 -1.179904495373196305e+01 -1.177741472570457049e+01 -1.170439074226843523e+01 -1.163810099906245910e+01 -1.154978828864592977e+01 -1.143952123020256906e+01 -1.119952497184850948e+01 -1.091222212893589472e+01 -1.060832066947236108e+01 -1.031308491210328881e+01 -1.005238609063727040e+01 -9.808496810446294845e+00 -9.545184054547911856e+00 -9.106761794895390949e+00 -8.708106987807147092e+00 -8.740408456917641900e+00 -8.899016900289664633e+00 -8.930668975132887155e+00 -8.850327113573591475e+00 -8.667512464471215594e+00 -8.112189866285099527e+00 -7.578849268270140271e+00 -7.396816029834385908e+00 -7.175831391880212351e+00 -7.108617777661486059e+00 -7.152198441169970167e+00 -7.326490577254652692e+00 -7.636490472480891967e+00 -7.915572136552867732e+00 -8.195794805707683039e+00 -8.511897282888876148e+00 -8.712363201283919167e+00 -8.949660843731125581e+00 -9.035195120529815327e+00
-1.947630523630720134e+01 -1.671445785446080379e+01 -1.395261047261440268e+01 -1.394923002545255564e+01 -1.396638388403091824e+01 -1.393459581833452354e+01 -1.386344361942342829e+01 -1.378526391273127771e+01 -1.363058189116159014e+01 -1.346848166461751717e+01 -1.353291672328975714e+01 -1.358911673453423141e+01 -1.354317158100061924e+01 -1.346823437622626862e+01 -1.348395850577163557e+01 -1.360030585094921385e+01 -1.363320122108228283e+01 -1.345148849719086925e+01 -1.330280936904530265e+01 -1.331863680044932607e+01 -1.333717899832199905e+01 -1.344995972458494116e+01 -1.358947010196435912e+01 -1.359228889866770551e+01 -1.344787413718000835e+01 -1.332028567607395253e+01 -1.329060444122139728e+01 -1.327326164402660957e+01 -1.335024260874959445e+01 -1.342955283748597495e+01 -1.341899611540390325e+01 -1.337605933826365501e+01 -1.331770046611628189e+01 -1.322484086495587619e+01 -1.312165614345060227e+01 -1.301514318793438107e+01 -1.290608686765638957e+01 -1.283093254977779196e+01 -1.273945273809769496e+01 -1.269249236789115187e+01 -1.269019237303032455e+01 -1.269638897043367720e+01 -1.269154094421889845e+01 -1.270507721782004396e+01 -1.280013552672308208e+01 -1.288296602087689458e+01 -1.288781547197351074e+01 -1.288395874696559318e+01 -1.290033471210644933e+01 -1.294276886566149898e+01 -1.293359249141542122e+01 -1.281343919431054701e+01 -1.268643293982981213e+01 -1.264464894841697706e+01 -1.261245412414745104e+01 -1.219486669918118338e+01 -1.172864959645342431e+01 -1.162572824459527077e+01 -1.173266377335369981e+01 -1.177537964781502566e+01 -1.171390911515938527e+01 -1.165746362361764632e+01 -1.155660622922744629e+01 -1.143831885266406090e+01 -1.192349056347367764e+01 -1.240746063169400060e+01 -1.251110762905937079e+01 -1.238462664933333457e+01 -1.220289117564957238e+01 -1.202117199166914041e+01 -1.191858608117036944e+01 -1.202681650520474577e+01 -1.212074050245815648e+01 -1.216382879357912117e+01 -1.219991425249119921e+01 -1.218152706208674019e+01 -1.211884210315745314e+01 -1.202919838126204333e+01 -1.188407635577042853e+01 -1.174867033185483045e+01 -1.177336218477362628e+01 -1.182217069707088619e+01 -1.184641735819526609e+01 -1.184010942252028897e+01 -1.177440340911435790e+01 -1.167786678525666488e+01 -1.159486977095188820e+01 -1.152561274388986234e+01 -1.143939746684376857e+01 -1.117314098105368814e+01 -1.092013121560308875e+01 -1.062152807979853719e+01 -1.025972207020438276e+01 -9.998915739252197454e+00 -9.814762499345805580e+00 -9.577917974644732269e+00 -9.234612366828645946e+00 -8.875945137700091081e+00 -8.931421379032775221e+00 -9.029817073962956187e+00 -8.977721700664984539e+00 -8.893337071287078288e+00 -8.508773591083357957e+00 -7.885365045829254349e+00 -7.471292850829092558e+00 -7.472208351141384597e+00 -7.430384765805973402e+00 -7.579574626187692843e+00 -7.686488410702102314e+00 -7.927523960393076052e+00 -8.252205752815253703e+00 -8.519199541971024914e+00 -8.726696259310070758e+00 -8.874258072646908246e+00 -8.915044740894288111e+00 -9.001810215309662411e+00 -9.027166142693401341e+00
-1.952515966603982278e+01 -1.678773949905973240e+01 -1.405031933207964379e+01 -1.401502921696732074e+01 -1.399260734942009243e+01 -1.393933435934187237e+01 -1.387547199634952833e+01 -1.375340355190631136e+01 -1.359880282571635135e+01 -1.353567949507320023e+01 -1.364168839048675963e+01 -1.373037470891884837e+01 -1.363072725151988607e+01 -1.353714298166711316e+01 -1.354676200298632693e+01 -1.359906936224515306e+01 -1.356384970503964738e+01 -1.341931668269277012e+01 -1.327482059604241726e+01 -1.322305668377459575e+01 -1.321423147859965397e+01 -1.339449223828232682e+01 -1.357241436551542080e+01 -1.348234743537245706e+01 -1.333282574986879254e+01 -1.326895685607845898e+01 -1.326195335887750204e+01 -1.326520403978753571e+01 -1.332422099772376889e+01 -1.338378722926219311e+01 -1.330634893365645333e+01 -1.323793831897431694e+01 -1.318983626477760751e+01 -1.313399158865752270e+01 -1.305517271821623559e+01 -1.295939675986693729e+01 -1.285034868629088400e+01 -1.274545809907380267e+01 -1.268116982146120364e+01 -1.268995068446007579e+01 -1.264609281947435626e+01 -1.262717813414341528e+01 -1.262256269004971898e+01 -1.268250092016564601e+01 -1.279850394072499853e+01 -1.288359796184584916e+01 -1.289516965424324013e+01 -1.290646753447803796e+01 -1.290421608137555864e+01 -1.290296386916268112e+01 -1.287191401603647023e+01 -1.281806180918811577e+01 -1.271889939487635601e+01 -1.260750834351706828e+01 -1.245555365227754763e+01 -1.209496812149567191e+01 -1.169857840794060699e+01 -1.181484755090534300e+01 -1.189483229789973251e+01 -1.178273318031742356e+01 -1.163159748248762426e+01 -1.157792284181050135e+01 -1.154352958493855397e+01 -1.156058787856320613e+01 -1.186298158127314117e+01 -1.223728615053772906e+01 -1.242082617965134972e+01 -1.251515067106807066e+01 -1.228331162716124325e+01 -1.194465332782993450e+01 -1.184193184183669523e+01 -1.199416104855706955e+01 -1.212543541254424184e+01 -1.221612990074917526e+01 -1.229092827257060705e+01 -1.220078798883881355e+01 -1.211260460299878972e+01 -1.201029921495430308e+01 -1.188538801397270461e+01 -1.177445799190966547e+01 -1.172091551425779699e+01 -1.171792064727834770e+01 -1.180677278771494088e+01 -1.187287082273527439e+01 -1.176221299317895763e+01 -1.164523207914469083e+01 -1.158130389188292320e+01 -1.152391746286618712e+01 -1.133909169551897733e+01 -1.100538235441190338e+01 -1.074439637725482122e+01 -1.061426981560007299e+01 -1.042729575971473110e+01 -1.014651341174667820e+01 -9.885454608720525727e+00 -9.636193828607373391e+00 -9.382936858286022641e+00 -9.223859321396055577e+00 -9.204083506329364894e+00 -9.167394849650291277e+00 -9.037970284441463775e+00 -8.919597228182134074e+00 -8.561566162256298185e+00 -8.102929193451929635e+00 -7.881726057488416259e+00 -7.836170816447753928e+00 -7.884915875891431725e+00 -8.089187346824402880e+00 -8.327292242379709108e+00 -8.503527654471824349e+00 -8.688297314226593571e+00 -8.763532449931663137e+00 -8.858080100381702238e+00 -8.907539853720461309e+00 -8.921503720596426490e+00 -8.939140583037541887e+00 -8.949730254533248441e+00
-1.952114321186905244e+01 -1.678171481780357510e+01 -1.404228642373810310e+01 -1.400268324553183419e+01 -1.397201793046415474e+01 -1.395116073090273190e+01 -1.390986565504448791e+01 -1.372830109010555866e+01 -1.354003724017019650e+01 -1.355418617607264764e+01 -1.365581837150514133e+01 -1.369168851193098213e+01 -1.363250376352280036e+01 -1.357252672264061211e+01 -1.355226048600349031e+01 -1.354483217752861890e+01 -1.354430178475217694e+01 -1.352226416624531247e+01 -1.339329067405814833e+01 -1.324389102530635043e+01 -1.321435532602706608e+01 -1.333458706295382257e+01 -1.344676942213467719e+01 -1.339384595522521515e+01 -1.329947915650084056e+01 -1.327509306009588563e+01 -1.327657741867957419e+01 -1.330341896222644849e+01 -1.334061562520753164e+01 -1.333701763373523264e+01 -1.326134834761864312e+01 -1.318905396725335066e+01 -1.314052708801908587e+01 -1.309056194294258901e+01 -1.302729367949511108e+01 -1.294953763654864431e+01 -1.277327473647802769e+01 -1.251504417755883658e+01 -1.247221590105848499e+01 -1.264288484336067953e+01 -1.273775680498626350e+01 -1.264910605062964066e+01 -1.258089308594219524e+01 -1.268010581430197270e+01 -1.280359196344752348e+01 -1.285615111675124567e+01 -1.286938176522323829e+01 -1.287983430830215426e+01 -1.287450973404775389e+01 -1.286416352678278585e+01 -1.280372265234553275e+01 -1.274948876605063219e+01 -1.265599944881616423e+01 -1.254385671346983422e+01 -1.231792133554797175e+01 -1.203178095317247731e+01 -1.196079472867538485e+01 -1.222780679948420257e+01 -1.240937906136203850e+01 -1.226781481489275727e+01 -1.211687191086706150e+01 -1.194278798318823931e+01 -1.179185009433816766e+01 -1.178808576311692136e+01 -1.188288491264724200e+01 -1.204703136613493797e+01 -1.237635586133517407e+01 -1.268068666953307577e+01 -1.233925203252383085e+01 -1.199849862918405563e+01 -1.197558192132263066e+01 -1.204873384652000823e+01 -1.214842107935465521e+01 -1.225995264973293075e+01 -1.231267649225842931e+01 -1.221166384019201345e+01 -1.210438468206745100e+01 -1.204549128883234488e+01 -1.197039901832000908e+01 -1.188830243131857500e+01 -1.180796229191959767e+01 -1.179069875632236020e+01 -1.184256788374728231e+01 -1.186101965318556672e+01 -1.174323581283514528e+01 -1.161796903750597210e+01 -1.163484403472420325e+01 -1.163873033977410465e+01 -1.137282113768974412e+01 -1.103261694898655065e+01 -1.077293692038123396e+01 -1.060927022831920041e+01 -1.044868094875769593e+01 -1.020468695874987297e+01 -9.928493199356834609e+00 -9.671071064933828509e+00 -9.420149543249168644e+00 -9.339480935754457036e+00 -9.315514646253564734e+00 -9.225248541258739721e+00 -9.073016237921837757e+00 -8.883096313479791561e+00 -8.575087855821253768e+00 -8.297206229447031234e+00 -8.307504380158453827e+00 -8.314471873009669167e+00 -8.334821298701047709e+00 -8.401974286583847373e+00 -8.489538816822134848e+00 -8.588783537979100657e+00 -8.711838176560094738e+00 -8.801629199672552417e+00 -8.879687393541447094e+00 -8.871525531413951171e+00 -8.857197005291505221e+00 -8.848141907204180256e+00 -8.856062564068864162e+00
-1.951271678897597184e+01 -1.676907518346395420e+01 -1.402543357795194190e+01 -1.396616689666883815e+01 -1.396429848342803837e+01 -1.400824601913679679e+01 -1.398222025517215172e+01 -1.382270432050952635e+01 -1.365520821990870459e+01 -1.357476736519243588e+01 -1.355330849066427490e+01 -1.360191718678406581e+01 -1.362396846705659215e+01 -1.358485808211806400e+01 -1.352057492573186614e+01 -1.350624155962092843e+01 -1.357551840748885041e+01 -1.361985016203626309e+01 -1.343142067329676337e+01 -1.324881978655235670e+01 -1.321594306354916881e+01 -1.325377572494941703e+01 -1.332523672103641843e+01 -1.339082283537281981e+01 -1.340572411971385591e+01 -1.333995678192543721e+01 -1.329069108230797980e+01 -1.330365282651141356e+01 -1.332352474238432372e+01 -1.329961033395283465e+01 -1.324709441958569478e+01 -1.318643785896595944e+01 -1.312913549217566711e+01 -1.307922895514285955e+01 -1.305394860864507933e+01 -1.301809624437506230e+01 -1.294280728139681713e+01 -1.282019242991610142e+01 -1.277067527784198120e+01 -1.280479334855075457e+01 -1.279928723301220828e+01 -1.269096640636843176e+01 -1.260581036369973162e+01 -1.269093307302219564e+01 -1.281122990738832712e+01 -1.280048873442913404e+01 -1.279081204211260925e+01 -1.281133576594637091e+01 -1.283503916208177387e+01 -1.281610474409643174e+01 -1.274973498886588175e+01 -1.267265449532406585e+01 -1.257966102548837739e+01 -1.250696916789046398e+01 -1.217604835188695489e+01 -1.184055446970626768e+01 -1.210274350906962049e+01 -1.258371707666555395e+01 -1.275860940628971107e+01 -1.260848960639183680e+01 -1.246112343959654822e+01 -1.224492070586481418e+01 -1.205948826777179406e+01 -1.216005591642428385e+01 -1.223762773755871436e+01 -1.237877829603479718e+01 -1.258378858002554423e+01 -1.261968338881531793e+01 -1.235018451851638410e+01 -1.210196532062451880e+01 -1.208952032438374857e+01 -1.209266868363286562e+01 -1.216540334884774133e+01 -1.225648283143543082e+01 -1.224934103179753464e+01 -1.217649692524475569e+01 -1.212038121112902544e+01 -1.209488514037161977e+01 -1.205492298681325636e+01 -1.198079400857163357e+01 -1.190537818824813066e+01 -1.187213740755228208e+01 -1.186828265365251056e+01 -1.182800856897096509e+01 -1.174535395349019495e+01 -1.167938783966137173e+01 -1.166454019971999934e+01 -1.162326609429996793e+01 -1.130802353323898757e+01 -1.099066155929502919e+01 -1.075351588755983911e+01 -1.052540309677653063e+01 -1.034904000077831299e+01 -1.020444962569886016e+01 -9.992919138281315838e+00 -9.712450060513894812e+00 -9.466792530042933862e+00 -9.465568607120726341e+00 -9.455336876252232514e+00 -9.294438464307894776e+00 -9.111744486347499006e+00 -8.767741162392377774e+00 -8.369276481872180540e+00 -8.132103404182709383e+00 -8.164213275460465269e+00 -8.201367332829626378e+00 -8.352763892128704626e+00 -8.487015435529292162e+00 -8.540407353162624560e+00 -8.582504911869866859e+00 -8.665537665581862115e+00 -8.776388803855239118e+00 -8.852635135234402597e+00 -8.854040013046120094e+00 -8.852110831425669346e+00 -8.854763070165406091e+00 -8.854728056921027601e+00
-1.951303290807603830e+01 -1.676954936211405567e+01 -1.402606581615207659e+01 -1.395213287397485757e+01 -1.391196234434247891e+01 -1.389915954768258288e+01 -1.387448636818091430e+01 -1.381311531553690486e+01 -1.369080682110415026e+01 -1.350008648274501333e+01 -1.335159972065881462e+01 -1.351174393322537348e+01 -1.365997194659587066e+01 -1.360619090675556286e+01 -1.352887089640769247e+01 -1.354280029732048085e+01 -1.361598399177239216e+01 -1.360058943532722964e+01 -1.341930227437142520e+01 -1.325009211125299124e+01 -1.319428037623926286e+01 -1.314614970426242380e+01 -1.328396454934354587e+01 -1.342812026100256517e+01 -1.346335836848753686e+01 -1.342669106684828151e+01 -1.337471509174901385e+01 -1.332628893776019119e+01 -1.329947436605150024e+01 -1.329091112271168029e+01 -1.327818459223249548e+01 -1.322357754016710274e+01 -1.316115357120737350e+01 -1.309414178998218503e+01 -1.303288226439867259e+01 -1.298776746367130919e+01 -1.296330744757335651e+01 -1.295201330861122457e+01 -1.293334677793024312e+01 -1.290401474761091194e+01 -1.288100716583118377e+01 -1.282993152796854019e+01 -1.275737001002788062e+01 -1.271352207020444425e+01 -1.270961602444887895e+01 -1.271194298434436831e+01 -1.270954287586911846e+01 -1.273386475019599651e+01 -1.277241742605055919e+01 -1.276620874283182161e+01 -1.272984030437397962e+01 -1.261196513887754023e+01 -1.245653495870265104e+01 -1.229295937104774694e+01 -1.204420528609221286e+01 -1.178788711619615448e+01 -1.234550503084562756e+01 -1.292348510990763444e+01 -1.297230810374343157e+01 -1.280975423642401267e+01 -1.253124599879348011e+01 -1.222041058203031838e+01 -1.202661394906508185e+01 -1.209539656114087514e+01 -1.218550239275442770e+01 -1.243034170562200380e+01 -1.265587864714117394e+01 -1.256838769976303105e+01 -1.237035143861262476e+01 -1.223491956075416276e+01 -1.218158479784785797e+01 -1.215578340374831789e+01 -1.220071320369459755e+01 -1.225669459921723714e+01 -1.226632669734686232e+01 -1.224826000644645774e+01 -1.219522334021321619e+01 -1.215444879698726410e+01 -1.211121981044287388e+01 -1.205472156187844313e+01 -1.197545722940768798e+01 -1.186915123751589718e+01 -1.178798384213162009e+01 -1.180569605448248538e+01 -1.179911057131013408e+01 -1.174058064360823828e+01 -1.168094297649050795e+01 -1.151090974628407793e+01 -1.119896807890282631e+01 -1.090616430348758037e+01 -1.069471024484917265e+01 -1.047916861095138685e+01 -1.027456664520472707e+01 -1.008943185517895635e+01 -9.877952450401533468e+00 -9.641383372164444410e+00 -9.526187164331087587e+00 -9.569442054615867832e+00 -9.570154248664964669e+00 -9.384474518157073675e+00 -9.185717454489747524e+00 -8.513041904786465608e+00 -7.881791855299285388e+00 -7.777440110202154422e+00 -7.883381271464459772e+00 -8.023500147492615753e+00 -8.231188680866026175e+00 -8.430633504789822652e+00 -8.525438968221477509e+00 -8.574531819703008040e+00 -8.682357032783711404e+00 -8.796001820679894223e+00 -8.857650672486565568e+00 -8.884478160109400946e+00 -8.887801470679999483e+00 -8.874709686249579121e+00 -8.863332750422367567e+00
